ply
format ascii 1.0
comment PCL generated
element vertex 577
property float x
property float y
property float z
element camera 1
property float view_px
property float view_py
property float view_pz
property float x_axisx
property float x_axisy
property float x_axisz
property float y_axisx
property float y_axisy
property float y_axisz
property float z_axisx
property float z_axisy
property float z_axisz
property float focal
property float scalex
property float scaley
property float centerx
property float centery
property int viewportx
property int viewporty
property float k1
property float k2
end_header
2.0917225 4.766654 0.82482374
2.1206374 4.6444588 0.56529427
2.1374097 4.496294 0.26353955
2.1105673 4.7770596 1.1341563
2.2187991 4.774857 1.0534364
2.0285616 4.3183126 0.31977892
2.0918109 4.2310176 0.10905242
2.2466574 4.2864799 0.10502744
2.2361126 4.7866955 1.3552289
1.9952056 4.255137 0.54296541
2.0510216 4.1572428 0.32253551
2.1286249 4.0884609 0.14051545
2.2137318 4.0277309 -0.031926155
2.3703089 4.0866671 -0.033696651
2.3316822 4.7572174 1.5164603
1.9978219 4.0640249 0.5067023
2.0715611 3.9892309 0.32013869
2.1603706 3.934864 0.1596303
2.2590709 3.8939977 0.016392469
2.3576276 3.8500495 -0.13228297
2.5170336 3.915894 -0.12666178
2.3974652 4.6848416 1.6174575
2.5300646 4.7279654 1.5990592
2.0926318 3.8178995 0.31792402
2.1954594 3.7838182 0.18565321
2.3011332 3.7525196 0.056232214
2.4107828 3.7263918 -0.066963434
2.519567 3.6966963 -0.19578171
2.6795371 3.7668209 -0.18634629
2.1458035 4.2793517 1.3748589
2.4327116 4.5640473 1.6558532
2.6090069 4.6809731 1.7299205
2.1165009 3.6470587 0.32093477
2.229424 3.6277463 0.20826209
2.3465385 3.6148627 0.1035533
2.4624398 3.5987301 -0.0058209896
2.5773416 3.5794115 -0.11990237
2.6927021 3.5595527 -0.23522639
0.25651312 3.3072319 1.3827012
0.45719534 3.3983741 1.3914651
0.59384435 3.4116406 1.3167703
0.70157492 3.3875427 1.2007575
0.75605959 3.2905483 1.001889
1.7233844 3.7912929 1.1456712
2.0008221 4.0416636 1.3633834
2.2312436 4.2304382 1.5125158
2.4637926 4.4344196 1.6852812
2.6721733 4.6095104 1.8273787
2.1422958 3.475409 0.32726634
2.2686844 3.478169 0.24245811
2.3920789 3.4753902 0.150612
2.5158963 3.4732487 0.059519529
2.6383033 3.4680393 -0.035646677
2.7561874 3.4527409 -0.14429355
2.9184623 3.53509 -0.1229074
0.36579692 3.4097195 1.7842144
0.54000425 3.472775 1.762429
0.68140852 3.4965017 1.7005956
0.80015111 3.4914646 1.608532
0.90852046 3.4721642 1.5008664
1.0072774 3.438581 1.3770308
1.1013879 3.3966727 1.2430933
1.1786375 3.3279691 1.0779889
1.6894445 3.7275722 1.3593843
1.9011388 3.8753157 1.4472761
2.1003804 4.0114641 1.5253277
2.2973347 4.1520352 1.6121082
2.4946165 4.3019733 1.7137204
2.7227149 4.5166998 1.8977259
2.8426137 4.5458446 1.8598113
2.3085585 3.3269465 0.27736998
2.4425566 3.3435256 0.2092793
2.5720773 3.3521404 0.13154745
2.6984053 3.3546112 0.046193123
2.8236594 3.3548985 -0.041912794
2.944531 3.3450816 -0.14316821
3.1024597 3.4237673 -0.12830782
0.045520186 3.1399777 1.8885266
0.37907737 3.3953955 2.0522473
0.55444551 3.4622812 2.0328805
0.70418942 3.4990997 1.9845954
0.8350606 3.5126643 1.9132767
0.95088768 3.506484 1.8217061
1.0622928 3.4938538 1.7231714
1.1691854 3.4741547 1.6167696
1.2791307 3.4578929 1.5135859
1.4223756 3.4907389 1.4636812
1.6229799 3.6138344 1.5144062
1.8210039 3.739783 1.5714194
1.9975052 3.83793 1.6001573
2.1748738 3.9434021 1.6397417
2.3491459 4.0500112 1.6832943
2.5328403 4.1802387 1.7571344
2.7259974 4.3364859 1.8649881
2.8992534 4.4653635 1.9440962
2.3570638 3.1898885 0.33209968
2.4943123 3.2126584 0.2706728
2.6317012 3.2374487 0.21230638
2.7642231 3.2534387 0.14361441
2.8917084 3.2591593 0.062418222
3.0151639 3.2557087 -0.030276299
3.1806941 3.3572879 0.011589289
-0.015694737 3.0327663 2.0707748
0.30229235 3.2700195 2.2070467
0.5217464 3.3927248 2.2386391
0.68899953 3.4532292 2.212467
0.83288348 3.4854977 2.1598415
0.95935524 3.4956164 2.0858142
1.0726184 3.4878206 1.9938591
1.1835721 3.476335 1.8979211
1.2949007 3.4648104 1.801658
1.4116658 3.4608526 1.7130685
1.5570396 3.5008688 1.6711823
1.7331868 3.5919647 1.6852845
1.9074388 3.6851778 1.703949
2.0737097 3.7704668 1.7161963
2.2331395 3.8490822 1.7231231
2.3997293 3.9454088 1.7519448
2.5644488 4.0445108 1.7863138
2.739949 4.1707745 1.8544024
2.9399714 4.3541021 1.9920079
3.057132 4.3813543 1.9506434
2.5543942 3.0978937 0.35257804
2.6941884 3.1286149 0.30048919
2.8315816 3.1563053 0.24548554
2.9644575 3.1755462 0.18081367
3.0917954 3.1826901 0.10164666
3.2144389 3.1782801 0.0082120895
-0.080107808 2.9216745 2.2493088
0.20295066 3.116344 2.3374696
0.45745051 3.283175 2.4045944
0.65033472 3.3772004 2.4074602
0.8038553 3.4230657 2.3668332
0.94132113 3.4491796 2.3083062
1.0656099 3.4581356 2.2336845
1.1788974 3.4517765 2.1441603
1.2900048 3.4418936 2.0509586
1.401459 3.432019 1.9575238
1.517011 3.4279571 1.8698003
1.6541781 3.4580288 1.8173461
1.8166087 3.5310862 1.8106914
1.9778397 3.6063678 1.8081787
2.1346776 3.6785417 1.8041705
2.2875228 3.7480335 1.7990127
2.4393601 3.8200891 1.7983646
2.5970798 3.9080698 1.8171432
2.7598329 4.0119271 1.8558762
2.9323547 4.1429796 1.9279789
3.1030428 4.2797084 2.0097854
3.1936226 4.2513056 1.9036703
2.76439 3.0373182 0.40921783
2.9041076 3.072217 0.36210895
3.0384376 3.0967793 0.30350137
3.1691709 3.1142492 0.23693311
3.2940578 3.117557 0.15352321
3.4588628 3.2342768 0.20985591
-0.19897342 2.7437954 2.3701835
0.094987988 2.9514802 2.4616346
0.35677946 3.1270351 2.5295286
0.56729597 3.2433243 2.5482662
0.74902427 3.3263872 2.5394745
0.90188003 3.3737884 2.4997032
1.0391462 3.401597 2.442719
1.1637138 3.4125295 2.3703921
1.2768924 3.4072447 2.2827466
1.387253 3.3974342 2.1905711
1.496984 3.3861313 2.0966897
1.6081226 3.3764575 2.0041609
1.7351823 3.3922863 1.9371289
1.880754 3.4401679 1.9032006
2.039381 3.5134826 1.8966949
2.1870785 3.5717421 1.87622
2.3326879 3.6298048 1.8569384
2.4795671 3.6940331 1.8456445
2.6248403 3.7593973 1.8371232
2.7759557 3.8411431 1.8480799
2.9361577 3.9478552 1.8885922
3.115243 4.1036873 1.9865444
3.2556357 4.1838551 2.0028081
2.8396342 2.9591208 0.53188848
2.9839606 3.0078502 0.50006258
3.1210036 3.0421629 0.45261014
3.2518649 3.0630453 0.3901726
3.3770084 3.0698688 0.31151664
3.5450025 3.2036798 0.38557446
-0.33563828 2.5434172 2.477344
-0.023121119 2.7733898 2.5788975
0.23586655 2.9445007 2.6357484
0.45614654 3.0723233 2.6592584
0.66360104 3.1886799 2.675756
0.8458131 3.275728 2.6689973
0.99372315 3.3186612 2.6246233
1.1266203 3.3420534 2.5634582
1.2487757 3.3507578 2.4892893
1.3618035 3.3460968 2.4028294
1.4701421 3.3339164 2.3091393
1.5788616 3.3216925 2.2151194
1.6880751 3.3096061 2.1209424
1.8083022 3.3153768 2.0440221
1.9403856 3.3420177 1.9879892
2.0864964 3.3952732 1.9593639
2.2341921 3.4547267 1.938311
2.3732362 3.5015457 1.9056556
2.5107872 3.5485148 1.8742664
2.6520391 3.6061704 1.8552483
2.7931461 3.6675773 1.8415935
2.9390626 3.7439117 1.845474
3.0961914 3.8513107 1.8849943
3.2771931 4.0231228 1.9979733
3.3946767 4.0539761 1.9581711
3.0708375 2.96451 0.65918469
3.2099538 3.0084548 0.62244713
3.3416238 3.0357821 0.5676688
3.4666228 3.0463183 0.49405813
3.6341424 3.1883821 0.57484818
-0.48821998 2.3226132 2.5746007
-0.15217495 2.5809302 2.6895614
0.10658193 2.7505991 2.7381763
0.3366366 2.8898399 2.7655549
0.55375183 3.0178504 2.7867546
0.74959463 3.1223857 2.7909546
0.92154205 3.1981101 2.7727265
1.0685551 3.2414639 2.727947
1.2033896 3.2689312 2.670095
1.3279108 3.2821462 2.6000829
1.4431359 3.2815919 2.5178499
1.5515879 3.270205 2.4256203
1.6570184 3.2532516 2.3279295
1.7624981 3.2354372 2.2290294
1.8719063 3.2234082 2.1352477
1.9957533 3.2364154 2.0654283
2.1296422 3.2686615 2.0147676
2.2697744 3.314755 1.9785926
2.4084516 3.3609805 1.9436274
2.5403616 3.3966155 1.8989913
2.6712298 3.4325347 1.8554802
2.8060718 3.4796295 1.8244131
2.9422841 3.533298 1.8013494
3.0836143 3.6030424 1.7966084
3.2400079 3.714922 1.8387277
3.4254088 3.909466 1.9731653
3.5294037 3.9062355 1.8952208
3.3104372 3.012033 0.82954347
3.4400854 3.0397859 0.77574897
3.5620761 3.047087 0.69945359
3.7350183 3.2179155 0.81033158
-0.66252053 2.0739615 2.6581507
-0.29512143 2.3702228 2.7919106
-0.032610416 2.5432436 2.8361263
0.20909429 2.6962111 2.8684158
0.43602872 2.8359554 2.8935835
0.62983239 2.9362216 2.8897364
0.81496453 3.0288496 2.8818741
0.99217844 3.114388 2.8701935
1.1421089 3.1636374 2.8295989
1.2788818 3.1953497 2.775012
1.4020545 3.2075021 2.7040586
1.5156201 3.2049446 2.6203587
1.6222651 3.1909039 2.5262976
1.7270912 3.1730285 2.4284289
1.8324466 3.155062 2.3300648
1.9369252 3.1344891 2.2288585
2.0469959 3.1229508 2.1356995
2.1696765 3.1345625 2.0643761
2.3010726 3.1639287 2.0104747
2.4329796 3.1962521 1.9601405
2.5637016 3.228301 1.9102795
2.6868744 3.2463095 1.8471055
2.8097835 3.2650411 1.7850783
2.935102 3.2907815 1.7306583
3.0581799 3.313139 1.6733284
3.1909089 3.361563 1.6438006
3.3417258 3.4614763 1.669881
3.5485349 3.7234309 1.8716224
3.6581707 3.7316499 1.8050163
3.7295475 3.6258001 1.6139352
3.7684116 3.4064298 1.2950449
3.8421068 3.2791958 1.0739186
-0.86590278 1.7879907 2.7235909
-0.4603827 2.1303763 2.8795083
-0.18362892 2.319828 2.9287519
0.071824908 2.4891007 2.9669681
0.30118924 2.6303871 2.9874496
0.50299525 2.739784 2.9861884
0.6949811 2.8402467 2.98032
0.88011003 2.9354463 2.9724956
1.05846 3.0251222 2.9623237
1.2072332 3.0742044 2.9205825
1.3403682 3.1013696 2.8615632
1.4649754 3.1162963 2.7927511
1.58198 3.1195364 2.7142053
1.6916612 3.1106105 2.625109
1.796427 3.0926738 2.5278382
1.8968003 3.0658855 2.4222293
1.9979252 3.0388975 2.3158312
2.1012475 3.0144238 2.2111299
2.2092626 2.9975636 2.1129534
2.3268642 2.9989002 2.0315244
2.4503088 3.012475 1.9617867
2.5732424 3.025888 1.8922007
2.6922283 3.0314667 1.8152775
2.8008389 3.0134873 1.7152328
2.893548 2.9559653 1.5753086
3.7618246 3.4636087 1.6176666
3.8401246 3.3612461 1.4299581
-1.1756734 1.3675711 2.7068343
-0.64836323 1.8605853 2.9543521
-0.34950805 2.0762601 3.0144227
-0.077015162 2.2659495 3.0604358
0.15582645 2.4099131 3.0769479
0.36724055 2.5304475 3.0791295
0.5679369 2.6411824 3.0765586
0.75999784 2.7444673 3.070719
0.93932515 2.8336804 3.0561762
1.1045557 2.9057264 3.0299995
1.2609417 2.9675312 2.9971895
1.3981186 3.0017285 2.9432228
1.5261192 3.0226362 2.8790219
1.6464057 3.0316567 2.8053174
1.7550859 3.021069 2.7151461
1.8572394 2.9982605 2.6142113
1.9577631 2.9711413 2.5090053
2.0590377 2.943819 2.4030125
2.1547129 2.9039173 2.2851498
2.2534475 2.86762 2.1696594
2.3547778 2.834321 2.0561063
2.4626489 2.8127813 1.9527255
2.564321 2.7759726 1.8345146
2.6585765 2.7194238 1.6967077
-1.7510048 0.6112951 2.4868362
-0.86810052 1.5489887 3.0109642
-0.53456175 1.8067285 3.0907819
-0.24035168 2.0227265 3.1472867
-0.00097692013 2.1731772 3.1622868
0.2215997 2.3067801 3.1685309
0.43237484 2.4295242 3.1698203
0.63258791 2.5424736 3.1665826
0.81045866 2.6273906 3.1448107
0.98224914 2.7070799 3.1209354
1.1486487 2.7822359 3.0953202
1.3106964 2.8541827 3.0688515
1.4540477 2.8991036 3.0225036
1.5817249 2.9199584 2.9577641
1.699127 2.9241452 2.8798761
1.8107488 2.9182749 2.7937579
1.9170146 2.9022613 2.6990039
2.0181298 2.8755941 2.5948443
2.1130264 2.8352304 2.478307
2.2089248 2.7943463 2.3604238
2.3011751 2.7432766 2.2326458
2.3917966 2.6853178 2.0975819
2.4776838 2.6128867 1.9481411
2.5518918 2.5085309 1.7678587
2.5509863 2.218056 1.4127414
-1.6463035 0.70770049 2.843884
-1.1605989 1.1424723 3.0187049
-0.74343455 1.5049219 3.1557803
-0.42359531 1.752033 3.2241869
-0.1715945 1.916823 3.2424316
0.061327577 2.0620654 3.2508659
0.27657813 2.1884785 3.2493505
0.47841954 2.3010116 3.2407713
0.66682661 2.3986685 3.2239585
0.85147309 2.4951808 3.2084405
1.0250525 2.5790298 3.1856527
1.1930068 2.658005 3.1610327
1.3523802 2.7268748 3.1304345
1.4973629 2.7750499 3.0853431
1.6265404 2.7984216 3.0218608
1.7482934 2.8098633 2.9494076
1.8639286 2.8107567 2.8687057
1.9725406 2.7984786 2.7772698
2.0711548 2.7660794 2.6689177
2.1669655 2.7260778 2.5534856
2.2609034 2.6796713 2.4317429
2.3494644 2.6187608 2.2965133
2.4348097 2.546633 2.1501856
2.5128126 2.4526937 1.9830495
2.5712118 2.3055851 1.7663956
2.5700264 2.0012319 1.4044321
-1.6518236 0.66627884 3.1044927
-1.4265968 0.76818049 3.0634596
-0.99057138 1.1515613 3.1999416
-0.63154423 1.447211 3.289084
-0.35938799 1.636106 3.3157964
-0.10813725 1.8037796 3.3326705
0.11269593 1.9352392 3.3290372
0.31330919 2.0429797 3.3121829
0.5073061 2.1457274 3.2942142
0.69649374 2.2458997 3.2766581
0.88144302 2.3442063 3.2599347
1.0622801 2.4407139 3.2440317
1.2257577 2.51349 3.2128704
1.3793048 2.5732448 3.173624
1.5294174 2.6301994 3.1335573
1.6682202 2.6701183 3.0817225
1.7947435 2.689806 3.0150986
1.9106534 2.6906581 2.9341269
2.0177286 2.6744571 2.8396165
2.1209798 2.6496437 2.7378187
2.2205362 2.615675 2.6280107
2.3088317 2.5555959 2.495873
2.3980484 2.4935279 2.3607757
2.4778218 2.4057298 2.2025042
2.5502253 2.2943165 2.0220456
2.6020532 2.1244533 1.7883222
2.589211 1.7776887 1.3950865
-1.4748806 0.67401981 3.2862375
-1.2616261 0.76514637 3.2383425
-0.87099874 1.0988383 3.338928
-0.57063317 1.3222342 3.3787932
-0.29658329 1.518111 3.4061923
-0.063240528 1.664058 3.4059956
0.14180982 1.774971 3.3862443
0.34160036 1.8829939 3.3669491
0.5361712 1.987988 3.3479249
0.72593546 2.0903883 3.3293705
0.90256858 2.1766319 3.301857
1.0729393 2.256829 3.2719445
1.2398342 2.3352244 3.242455
1.4029654 2.4111786 3.2128704
1.5575141 2.4759264 3.1767001
1.706284 2.533669 3.1367061
1.8303362 2.5482337 3.0654345
1.9472997 2.5499399 2.9846554
2.0593374 2.5419416 2.8964014
2.1671891 2.5248597 2.8008499
2.2633629 2.4819629 2.684406
2.3559752 2.4284582 2.5585024
2.4421201 2.3566945 2.4165542
2.52125 2.2634661 2.2553289
2.5880485 2.1335289 2.0613716
2.6335526 1.94015 1.8108343
-1.3466827 0.62338388 3.4301741
-1.1359595 0.71468818 3.3815107
-0.81241226 0.96521759 3.4280524
-0.5099504 1.1965303 3.4683857
-0.25293839 1.3723884 3.4799135
-0.038353443 1.4936104 3.4613984
0.16743374 1.6070215 3.4405203
0.36799091 1.7175654 3.4201894
0.55754673 1.8159759 3.3943036
0.73625416 1.9016328 3.3620725
0.91138065 1.9855733 3.3304877
1.0830978 2.0679586 3.2996042
1.2519121 2.1495464 3.2698967
1.4174162 2.2295494 3.2407889
1.5700748 2.2904291 3.199748
1.7174759 2.3448303 3.1553047
1.8560107 2.3852293 3.1017432
1.9798064 2.39872 3.0290322
2.0972395 2.4000015 2.9474032
2.2007856 2.3720415 2.8434577
2.3006635 2.3342788 2.7313333
2.3982339 2.2887979 2.6123583
2.4809492 2.2055562 2.4623895
2.561626 2.1114376 2.301909
2.6246519 1.9661503 2.0976765
2.6571481 1.7302972 1.8155026
-1.2371575 0.55085564 3.5595255
-1.0472618 0.61652684 3.4954853
-0.75362504 0.83121586 3.517467
-0.47749579 1.029743 3.5345423
-0.22645748 1.199908 3.5390263
-0.013666511 1.3200599 3.517065
0.19020832 1.4319116 3.4925315
0.37758291 1.5229638 3.4574199
0.56191003 1.6134005 3.4238048
0.74272776 1.7024158 3.3911505
0.91984105 1.7895743 3.3591304
1.0921245 1.872786 3.3263042
1.251255 1.9369521 3.2824087
1.4085209 2.001143 3.2398584
1.5632576 2.0641141 3.1977916
1.7155796 2.125984 3.1562548
1.8658376 2.1873517 3.1156404
2.0042579 2.2282076 3.0614586
2.1179039 2.2194145 2.9716945
2.2265964 2.1992998 2.8733244
2.332273 2.1710978 2.7684367
2.4238429 2.1082506 2.6364708
2.5112097 2.0308897 2.4919543
2.5838506 1.9112359 2.3126173
2.6390064 1.7373654 2.0876584
-1.1442007 0.45772111 3.6761923
-0.96095264 0.51612282 3.6074014
-0.73791826 0.63437486 3.5727696
-0.45845747 0.84082747 3.5900378
-0.20215726 1.0213876 3.596734
-0.0034099817 1.1213853 3.560277
0.19010663 1.2176988 3.5236835
0.37961167 1.3120335 3.4878674
0.56618696 1.4060335 3.4537745
0.7454778 1.4923162 3.4168
0.91243351 1.5615523 3.3708057
1.0765361 1.6292753 3.325254
1.2381083 1.6959537 3.2804046
1.3973578 1.7618912 3.2364264
1.5547717 1.8279635 3.1938863
1.6981692 1.8700672 3.1363108
1.8373456 1.9060478 3.0753469
1.9753253 1.9416995 3.0148869
2.1121354 1.9770491 2.9549396
2.244252 2.0041907 2.8897681
2.3439524 1.958251 2.7714553
2.4378855 1.8953533 2.6395702
2.5218978 1.8033929 2.4844518
2.5853133 1.6517272 2.2817557
-1.0815214 0.32306051 3.7705221
-0.89460886 0.38786006 3.7039843
-0.71360326 0.44666982 3.6355567
-0.45561397 0.62412691 3.6328592
-0.21152496 0.78796613 3.6261988
-0.0065444708 0.89753473 3.592227
0.18956494 0.99784184 3.5551476
0.37532878 1.0858005 3.5128777
0.54937345 1.1581947 3.4631302
0.72110087 1.2301548 3.4145818
0.89109957 1.3026921 3.3678408
1.0583935 1.3740748 3.3218424
1.2151916 1.4296334 3.2672393
1.361639 1.4683459 3.2028933
1.5067983 1.5066965 3.1390917
1.6508889 1.5451002 3.0760996
1.7938149 1.5833606 3.0137858
1.928396 1.6059612 2.9415126
2.0601907 1.6237922 2.866379
2.1909835 1.6404902 2.7908061
2.3210273 1.6565388 2.7151053
2.4113555 1.5759124 2.5695751
2.4717076 1.4129022 2.3618031
-0.83349669 0.25158095 3.7966983
-0.67245889 0.28128743 3.7121024
-0.48439157 0.35400879 3.6507845
-0.22948074 0.53543961 3.6493318
-0.01997149 0.65185642 3.6159129
0.16314793 0.73011386 3.563549
0.34332961 0.8071363 3.5120454
0.52062905 0.88292694 3.4613662
0.69297719 0.95372212 3.409265
0.84694052 0.99467397 3.3407536
1.0000423 1.0361733 3.2733912
1.1520979 1.0779104 3.2070029
1.3027723 1.1192453 3.1411946
1.4426056 1.1409445 3.0637016
1.5809976 1.1609104 2.9855196
1.7183905 1.179937 2.9071188
1.8552343 1.1989362 2.8290789
1.9400635 1.0999634 2.6715598
-0.62769949 0.11946595 3.7918448
-0.47743309 0.13330007 3.6988544
-0.29658055 0.19715738 3.6322
-0.064441323 0.34869623 3.6133513
0.12227619 0.43055511 3.5598102
0.289204 0.4820869 3.491184
0.45096511 0.52699709 3.4198627
0.6112501 0.57149732 3.3491917
0.76856947 0.61277497 3.2775276
0.91513699 0.63564479 3.1958168
1.0610423 0.65846467 3.1145265
1.2062578 0.68117559 3.0336192
1.3171191 0.63361216 2.9096236
1.3996223 0.52233958 2.7445946
-0.45313823 -0.064027548 3.7616563
-0.31303549 -0.067738533 3.659127
-0.17462385 -0.074483871 3.5549634
0.01348722 0.0045310259 3.4956536
0.18636882 0.060384631 3.4255073
0.34245229 0.088480234 3.3413475
0.49742603 0.11594939 3.2573872
0.64128095 0.12357807 3.1627827
0.73140806 0.025967121 3.0080023
-0.31090748 -0.30794144 3.7026024
-0.19007576 -0.34804988 3.5807679
-0.088175178 -0.42367411 3.440093
-0.016202807 -0.55743814 3.2678258
-0.023586512 -0.84588385 3.0113168
0 0 0 1 0 0 0 1 0 0 0 1 0 0 0 0 0 577 1 0 0
