ply
format ascii 1.0
comment PCL generated
element vertex 580
property float x
property float y
property float z
element camera 1
property float view_px
property float view_py
property float view_pz
property float x_axisx
property float x_axisy
property float x_axisz
property float y_axisx
property float y_axisy
property float y_axisz
property float z_axisx
property float z_axisy
property float z_axisz
property float focal
property float scalex
property float scaley
property float centerx
property float centery
property int viewportx
property int viewporty
property float k1
property float k2
end_header
2.6898012 -1.1433527 -0.38322759
2.88486 -0.98406887 -0.38201582
3.0639307 -0.87026525 -0.35307235
3.2332125 -0.78405571 -0.30736679
2.424737 -1.1331463 -0.30267775
2.6421363 -0.91626334 -0.34036577
2.8316278 -0.77777028 -0.32860351
3.0070884 -0.67771602 -0.29283834
3.1714911 -0.61050916 -0.23590219
3.3336201 -0.54523611 -0.17886692
1.7396758 0.44655323 -1.9372213
1.9242808 0.56940413 -1.9181584
2.031745 0.50800681 -1.7864594
2.1265519 -1.2050164 -0.16505468
2.4089439 -0.80931783 -0.32442272
2.6141901 -0.63102889 -0.34106815
2.7880964 -0.54354191 -0.29748201
2.9514959 -0.48527288 -0.23481297
3.1114025 -0.43421388 -0.16807246
3.2659018 -0.3991735 -0.090619802
3.4217741 -0.35432744 -0.021093607
1.5111986 0.78888083 -2.1682339
1.6921458 0.89988315 -2.143827
1.8369687 0.93568099 -2.0748138
1.9806905 0.97120643 -2.0063255
2.1104298 0.97518384 -1.9182959
2.2299895 0.95388722 -1.813889
2.3380075 0.90106046 -1.6882324
2.1963539 -0.63904881 -0.35179132
2.4259536 -0.39835453 -0.41395795
2.5937047 -0.33249497 -0.35677361
2.7495368 -0.30009055 -0.27681077
2.9022715 -0.27533269 -0.1919046
3.0504916 -0.26453543 -0.097168684
3.2008104 -0.24455571 -0.0095143318
3.3495312 -0.22881436 0.080963492
3.5006952 -0.20074558 0.16167021
1.2604214 1.0511854 -2.3500776
1.4540224 1.182964 -2.3395333
1.5992646 1.2216148 -2.2738905
1.7431387 1.259639 -2.2086146
1.8771026 1.2780825 -2.1315718
1.996642 1.26477 -2.0342803
2.1159711 1.250088 -1.9358245
2.2352757 1.2343503 -1.8363737
2.3509479 1.2083371 -1.7296393
2.456687 1.1544507 -1.6032031
2.5289452 1.0056131 -1.4094003
2.29475 -0.019409418 -0.59218961
2.4429786 -0.0053567886 -0.50084996
2.5786152 -0.028657198 -0.38259947
2.713985 -0.054889917 -0.26172644
2.8511894 -0.077424049 -0.14310187
2.9911361 -0.092535257 -0.029655218
3.1327698 -0.10297608 0.080505371
3.2787914 -0.097471476 0.17848039
3.4250932 -0.090184689 0.27494466
3.5658536 -0.10619593 0.38982892
0.98960495 1.254478 -2.4958916
1.2015615 1.4128201 -2.502059
1.3556263 1.4686081 -2.4480965
1.5007802 1.5099187 -2.3861678
1.6412784 1.5441444 -2.3205497
1.7619801 1.5390292 -2.2301598
1.8815511 1.5311681 -2.1378632
2.0005512 1.5215477 -2.0442367
2.1187153 1.509391 -1.9487017
2.2245631 1.4672537 -1.8323307
2.3314219 1.4246837 -1.7148182
2.437345 1.3766913 -1.5926238
2.5434821 1.325703 -1.4673257
2.6186383 1.186106 -1.2766118
2.4335186 0.2954154 -0.52975255
2.5555134 0.239856 -0.38873655
2.6785462 0.18265963 -0.24537355
2.7992253 0.11264849 -0.091045737
2.9297562 0.069309235 0.043963909
3.0638552 0.034306526 0.17328048
3.2029963 0.014482498 0.29120421
3.3474052 0.013267756 0.39451396
3.4949455 0.025010586 0.48726845
0.64754838 1.3241496 -2.5617743
0.91987824 1.5744609 -2.6227233
1.10528 1.6830816 -2.6016359
1.2532895 1.7292172 -2.5437036
1.3981198 1.7718697 -2.4844916
1.5250229 1.7824037 -2.4054265
1.6457185 1.7812648 -2.318928
1.7650229 1.7772305 -2.2304811
1.8840384 1.7723489 -2.1413803
1.992609 1.7446157 -2.0365212
2.0982628 1.7086215 -1.9253577
2.2047515 1.6721833 -1.8131542
2.3103056 1.6310475 -1.6968541
2.4168534 1.589469 -1.5794022
2.5157127 1.5252346 -1.4444416
2.6103473 1.4449546 -1.2962173
2.6637599 1.2448862 -1.0558192
2.5194674 0.46193147 -0.36487216
2.6326776 0.38153577 -0.20339584
2.7448754 0.29082036 -0.032182932
2.8627276 0.21011293 0.13289142
2.9914851 0.15887547 0.27583027
3.1246827 0.11836243 0.41104698
3.2649891 0.10045195 0.52839828
3.4108131 0.10264087 0.6292944
0.62603188 1.7090471 -2.7268202
0.83839726 1.855051 -2.728617
0.99998903 1.9223911 -2.684442
1.1476732 1.9690135 -2.6285384
1.2869802 2.0031476 -2.5655603
1.4080195 2.0057719 -2.4827039
1.528807 2.0080671 -2.3996832
1.6477458 2.0069311 -2.3143985
1.7606122 1.9937088 -2.2208283
1.8664455 1.9653726 -2.1165001
1.972084 1.9349076 -2.0100944
2.0781069 1.9033672 -1.9022977
2.1834588 1.8682897 -1.7912937
2.2843635 1.8205954 -1.6703029
2.3810549 1.759534 -1.5383787
2.4786291 1.6962904 -1.4035589
2.5762582 1.6284935 -1.2639614
2.664 1.529108 -1.0984776
2.4841795 0.67971218 -0.34157461
2.57792 0.54974484 -0.140019
2.6839123 0.44538879 0.043542981
2.7900889 0.3321079 0.23652458
2.9100087 0.25340307 0.4032371
3.0412712 0.20615029 0.54523444
3.1784644 0.17556334 0.67407966
3.3230109 0.16991925 0.7821641
0.53759742 1.9659387 -2.8180268
0.74184966 2.0958228 -2.8125122
0.89223719 2.1451235 -2.7589002
1.039284 2.1912959 -2.7043047
1.168967 2.2104192 -2.6330576
1.2903168 2.216079 -2.5533037
1.4105514 2.2200513 -2.4725332
1.529022 2.2210176 -2.3897953
1.6352885 2.1991582 -2.2912748
1.7405798 2.1741862 -2.1901145
1.8462651 2.1485457 -2.087961
1.9516939 2.1208487 -1.9837887
2.0540314 2.0849352 -1.8730153
2.1505656 2.0341301 -1.7504179
2.2470942 1.9799743 -1.6242412
2.3440814 1.9232059 -1.494946
2.4412227 1.8628156 -1.3616683
2.5387127 1.7988951 -1.2243683
2.6299064 1.7138746 -1.0689535
2.6886342 1.5350063 -0.83612382
2.5141542 0.68977714 -0.055510879
2.6099858 0.56009769 0.15094662
2.7074442 0.42381668 0.36561525
2.8190446 0.31988096 0.55568981
2.9462457 0.25790358 0.71192074
3.0839427 0.22642779 0.84295106
3.229701 0.2213918 0.95140386
0.14428771 1.9431841 -2.826304
0.44167888 2.1984034 -2.8964949
0.6312865 2.3032103 -2.8776016
0.78116488 2.3518023 -2.8250227
0.92812669 2.3980756 -2.7719579
1.050251 2.4066117 -2.694984
1.1718901 2.4147651 -2.6179328
1.2917082 2.4202518 -2.5392385
1.4035895 2.4122725 -2.4513574
1.5095172 2.393291 -2.3555946
1.6147811 2.3720684 -2.2578387
1.720624 2.3507519 -2.1595705
1.8253863 2.3261302 -2.058434
1.9214841 2.28284 -1.9429078
2.0173507 2.236449 -1.8241376
2.1137261 2.1882298 -1.7029984
2.2100904 2.1368682 -1.5784137
2.3070502 2.0834198 -1.4511147
2.3988986 2.0143666 -1.310281
2.4885981 1.9351866 -1.1598371
2.5779421 1.8492401 -1.0022085
2.6580465 1.7326496 -0.8174367
2.4405293 0.80196548 0.051549435
2.5212693 0.63370252 0.29355717
2.6057663 0.46182084 0.54219842
2.7110586 0.33819151 0.75251627
2.8376207 0.27125001 0.9155755
2.9778574 0.24384403 1.0448565
3.1263924 0.24308503 1.1507206
0.087091923 2.2263303 -2.9345889
0.33968484 2.4111447 -2.9646688
0.51792407 2.4973128 -2.9359345
0.66776544 2.5456617 -2.8845758
0.8082099 2.5821064 -2.8264194
0.93106914 2.593276 -2.7521574
1.0520403 2.6020093 -2.6764793
1.1718254 2.6092582 -2.5999641
1.2783895 2.5950985 -2.5086226
1.383647 2.5780146 -2.4149036
1.4893043 2.5607357 -2.3206811
1.5946999 2.542068 -2.2250762
1.6933181 2.5099926 -2.1191235
1.7892811 2.4711206 -2.0073738
1.8846452 2.4288335 -1.8921908
1.9810576 2.3861053 -1.7757689
2.0766814 2.3391249 -1.655103
2.1707389 2.2858405 -1.5284264
2.2587714 2.2158797 -1.3871791
2.3478251 2.143476 -1.2424512
2.4368479 2.0659113 -1.0919174
2.5263624 1.9838867 -0.93600023
2.6165159 1.8972702 -0.77444571
2.6316996 1.6076665 -0.43669248
2.4037795 0.63220811 0.5036186
2.4642887 0.39268374 0.81687319
2.5744362 0.27906883 1.0230513
2.7097721 0.23306346 1.1706972
2.8589082 0.22750044 1.282434
-0.0032541752 2.4508297 -3.0091982
0.23006147 2.604212 -3.0221736
0.40172398 2.6794763 -2.9881117
0.55265522 2.7289221 -2.9387541
0.68792289 2.7581136 -2.8769732
0.81040412 2.7699056 -2.8040471
0.93184465 2.7806778 -2.7306738
1.0464249 2.7814529 -2.6505525
1.152355 2.7687111 -2.5608654
1.2580413 2.7549551 -2.4701743
1.3640695 2.7410731 -2.3790951
1.4662582 2.7199993 -2.282387
1.5618136 2.6863253 -2.1757505
1.657048 2.6502573 -2.0665636
1.7525537 2.6126792 -1.9554327
1.8482299 2.5732718 -1.8420587
1.9433728 2.5305107 -1.7251711
2.0312419 2.4706421 -1.5935788
2.1192236 2.4072583 -1.4578284
2.2075775 2.34057 -1.317981
2.2964594 2.2705865 -1.1739371
2.3852692 2.1956036 -1.0241442
2.4688988 2.103075 -0.85765743
2.5491576 1.9954574 -0.67604768
2.597151 1.7978172 -0.41280901
1.9771982 -0.17537212 1.4381132
2.215333 0.041688085 1.3546667
2.3867068 0.086455345 1.4239073
2.5588062 0.13747621 1.4864054
-0.11231029 2.6416912 -3.0645683
0.11613154 2.7840254 -3.0727038
0.28422695 2.8529577 -3.0360124
0.43624836 2.9032149 -2.9884257
0.56638074 2.9256675 -2.9231727
0.68911874 2.9387612 -2.8519924
0.8114205 2.9518082 -2.7810643
0.9205156 2.9461703 -2.6972017
1.0264579 2.9355657 -2.6096482
1.1326947 2.9249117 -2.5218275
1.2379881 2.9122677 -2.4323013
1.334846 2.8854709 -2.3318696
1.4303219 2.8550429 -2.2280867
1.5252616 2.8221288 -2.1217189
1.6210477 2.7889218 -2.0144041
1.7159667 2.7523499 -1.9036909
1.805212 2.7033339 -1.782156
1.8923104 2.6474295 -1.6539278
1.9803824 2.5900702 -1.5232767
2.0679562 2.5281804 -1.3875773
2.1566386 2.4646406 -1.2491276
2.2417059 2.3892274 -1.0990801
2.3216443 2.2973959 -0.93308806
2.4018567 2.1997333 -0.75995141
2.4815464 2.0937197 -0.57722968
2.5454836 1.9410608 -0.35004348
-0.35729218 2.9382839 -3.3512836
-0.11479318 3.0898902 -3.3654897
0.02338326 3.1211302 -3.3060455
0.10468996 3.0835133 -3.2024817
0.19155568 3.0514021 -3.1017306
0.31902117 3.0700245 -3.0344064
0.44360429 3.0856397 -2.9654374
0.56748921 3.1009741 -2.8966181
0.68766099 3.1118999 -2.8250253
0.79408824 3.1041579 -2.7402878
0.90073264 3.0963807 -2.6553538
1.0067022 3.087266 -2.5692589
1.1082122 3.0710833 -2.4776607
1.2039231 3.0452812 -2.378382
1.2985981 3.0165997 -2.276309
1.3939692 2.9875975 -2.1733513
1.4890577 2.9566419 -2.0682011
1.5798018 2.9167285 -1.9551513
1.6668812 2.8683076 -1.8342736
1.7539151 2.8171115 -1.7100295
1.8414358 2.7638774 -1.5829445
1.9289644 2.7075224 -1.4520321
2.016119 2.6470196 -1.316304
2.0954499 2.5670598 -1.1622781
2.1746559 2.4816725 -1.0016935
2.2546599 2.3922901 -0.8356514
2.3341923 2.2956882 -0.66110086
2.4102001 2.1841052 -0.47069448
2.457262 1.9955026 -0.20642674
-0.74286532 2.7988095 -3.2017679
-0.49480057 2.9463494 -3.2120156
-0.24148953 3.1053908 -3.233027
0.047786474 3.3128643 -3.2895513
0.22398037 3.3921337 -3.2647114
0.29592127 3.3465567 -3.1564898
0.36093521 3.2905047 -3.0399857
0.44887632 3.2614572 -2.9412498
0.56049269 3.2620606 -2.8630846
0.66782445 3.2569892 -2.780808
0.77463788 3.2509947 -2.6977363
0.88051069 3.2434301 -2.613354
0.97718018 3.2224529 -2.5186017
1.0721579 3.1980522 -2.420738
1.1673427 3.1728101 -2.3216686
1.2626946 3.1466041 -2.2212687
1.3552668 3.1147642 -2.1157446
1.4423844 3.0725811 -2.0010624
1.5286393 3.0267873 -1.8824465
1.6160313 2.9804649 -1.7623615
1.7027577 2.9304478 -1.6380978
1.7905085 2.8794334 -1.5118549
1.8699402 2.8102112 -1.3685827
1.9493318 2.7367754 -1.220037
2.0281382 2.6576743 -1.0647759
2.1074462 2.5745497 -0.9040972
2.1870778 2.4866376 -0.73716545
2.2549126 2.3674655 -0.53923923
2.3205218 2.2349763 -0.32612944
2.3679247 2.0509624 -0.061057568
-0.90598369 2.7878401 -3.0446005
-0.66931725 2.9173398 -3.0446799
-0.39842796 3.0903335 -3.0767922
-0.13967431 3.255734 -3.1076684
0.12284911 3.4318142 -3.1496871
0.34817857 3.5700932 -3.1691332
0.41460687 3.5196018 -3.0568821
0.4685508 3.4515262 -2.9307244
0.54353392 3.4074321 -2.8206947
0.64776391 3.3994787 -2.7367103
0.7501657 3.3887618 -2.6504455
0.84554183 3.3680575 -2.5562365
0.9407298 3.3461719 -2.4606326
1.0364008 3.3239744 -2.3642845
1.1310649 3.299284 -2.2654252
1.217941 3.2618561 -2.1556048
1.3042202 3.2216926 -2.0426695
1.3909534 3.1802263 -1.9277289
1.4776814 3.136622 -1.8100281
1.5645874 3.0910125 -1.6896085
1.6454667 3.0327783 -1.5571282
1.7240992 2.9674125 -1.4170165
1.8027205 2.8982861 -1.2720507
1.881886 2.8260858 -1.1227261
1.9605401 2.7485363 -0.96684706
2.0328588 2.6537857 -0.7932089
2.0992825 2.5410531 -0.60049045
2.1648231 2.4189558 -0.39628881
2.2294626 2.2864861 -0.17931467
-1.0734634 2.7773182 -2.8830452
-0.82233012 2.9175899 -2.8918025
-0.54424274 3.0927682 -2.9278698
-0.27854764 3.2604055 -2.9626832
-0.025645256 3.4196212 -2.9953542
0.21859574 3.5747676 -3.0287445
0.43458164 3.7022245 -3.045332
0.49403411 3.6442215 -2.9262421
0.54793805 3.5769835 -2.7988079
0.61873156 3.528374 -2.6841772
0.71364731 3.5089302 -2.5912325
0.80970073 3.4901533 -2.4983697
0.90454686 3.4689193 -2.4030962
0.99359578 3.4387217 -2.300015
1.0800328 3.4034433 -2.1920314
1.1664393 3.3664579 -2.0818019
1.2532984 3.3283591 -1.9697731
1.3396149 3.2875528 -1.8545313
1.4215682 3.2378864 -1.7306054
1.4994278 3.1791 -1.5974593
1.5782281 3.118716 -1.4615253
1.656395 3.0539522 -1.3202217
1.7352492 2.9867244 -1.1751584
1.8094038 2.907218 -1.017108
1.8762311 2.8095078 -0.84005648
1.9429891 2.7056439 -0.65487981
2.0086367 2.5930078 -0.45883548
2.0651631 2.4545805 -0.23497987
2.1016147 2.2648995 0.042765498
-1.2294993 2.7839379 -2.7284155
-0.97972822 2.9178271 -2.7345481
-0.69409156 3.0953078 -2.7748182
-0.42121923 3.2651863 -2.8137376
-0.16170323 3.4263754 -2.8502417
0.086739779 3.5809941 -2.8856072
0.35351872 3.7629309 -2.9452939
0.50222009 3.8117175 -2.9067359
0.54563642 3.7348611 -2.7711334
0.59390247 3.6608615 -2.6360013
0.6774779 3.6283529 -2.5325327
0.76896489 3.6046596 -2.4355028
0.85571712 3.5736978 -2.3318992
0.94193572 3.5406401 -2.2258124
1.0289845 3.5072212 -2.1186459
1.1150181 3.4708147 -2.0081191
1.1973405 3.4273181 -1.8905394
1.2751256 3.3749895 -1.7641132
1.3536413 3.3211484 -1.6351054
1.4316009 3.2636776 -1.5015368
1.5103769 3.2044816 -1.3650362
1.5850538 3.1353645 -1.2178931
1.6527579 3.0506623 -1.0544078
1.7193677 2.9592168 -0.88249218
1.7856909 2.8618743 -0.7027306
1.8518138 2.7582543 -0.5145421
1.8942018 2.6031785 -0.27290416
1.9317714 2.4286571 -0.0081313848
-1.1419744 2.9177709 -2.5725224
-0.84816146 3.0979388 -2.617451
-0.56784534 3.2700813 -2.6606674
-0.30141473 3.4333301 -2.7012286
-0.046519279 3.5898099 -2.7404535
0.19709539 3.7394233 -2.7780247
0.46714473 3.9255102 -2.8480577
0.54341763 3.8897862 -2.7440214
0.58513957 3.8109264 -2.6039188
0.63348454 3.7369673 -2.4660063
0.7170735 3.7042117 -2.3609605
0.80410963 3.6744738 -2.2577088
0.89032203 3.6423452 -2.1516874
0.97259831 3.603488 -2.039012
1.0505848 3.5569506 -1.9185987
1.1287845 3.5085206 -1.7953801
1.2069706 3.4577341 -1.668866
1.2851756 3.4044647 -1.5388563
1.3600335 3.3434324 -1.4003263
1.427709 3.2680786 -1.2467885
1.4946274 3.1874948 -1.0864515
1.5620191 3.1032639 -0.92066455
1.6279883 3.0118868 -0.74586082
1.6773543 2.8864484 -0.53502643
1.7202978 2.7420516 -0.30214453
1.7591109 2.5811613 -0.049050808
1.7125539 2.248069 0.38519013
-1.3055916 2.9211731 -2.4082978
-1.0066509 3.1006455 -2.4555693
-0.71857727 3.2751126 -2.5033104
-0.44494689 3.4404733 -2.5481415
-0.18333817 3.5988612 -2.5914233
0.066527367 3.7501898 -2.6328354
0.30486292 3.8942938 -2.671988
0.52354771 4.0213747 -2.7005022
0.56058693 3.9397016 -2.5566053
0.59420013 3.8505769 -2.4043911
0.66517013 3.8035469 -2.2864287
0.74731821 3.7685137 -2.1778517
0.82557356 3.7269742 -2.0626502
0.90355915 3.6832335 -1.9444675
0.98199916 3.6381102 -1.8239706
1.0598861 3.5901284 -1.6997455
1.1338379 3.5343435 -1.5670569
1.2013209 3.4665451 -1.4216286
1.2690501 3.3957143 -1.271656
1.3362504 3.3204479 -1.115665
1.4029305 3.2404091 -0.95316386
1.4559147 3.1342432 -0.76269293
1.5015574 3.0101612 -0.55159247
1.544359 2.8741989 -0.32537949
1.5446339 2.656569 -0.011538744
-1.4357994 2.9624822 -2.2683468
-1.1697543 3.1034307 -2.2889752
-0.87360764 3.280268 -2.341471
-0.59245574 3.4478159 -2.3908119
-0.32387662 3.6081405 -2.4383447
-0.067495108 3.7612414 -2.4838047
0.176961 3.9070079 -2.5268342
0.45892084 4.1006732 -2.6142845
0.53630096 4.0670738 -2.5098071
0.56425565 3.9742076 -2.3525012
0.60108352 3.8881187 -2.1989584
0.67761391 3.8468783 -2.0837646
0.75645852 3.8067489 -1.9685796
0.83417219 3.763412 -1.8494443
0.9061501 3.710649 -1.7204039
0.9736892 3.6495385 -1.5821397
1.0422592 3.5869563 -1.4409661
1.1092076 3.5190871 -1.2931095
1.1767818 3.4487591 -1.1411688
1.2285275 3.3516192 -0.96071094
1.2765592 3.2438307 -0.76710844
1.3231608 3.1280737 -0.56271493
1.3436396 2.9644423 -0.30588943
1.3218378 2.7224789 0.037052155
-1.3375945 3.1063778 -2.1175244
-1.0331426 3.2855341 -2.174938
-0.74407601 3.4554002 -2.22909
-0.4682554 3.6176915 -2.2810791
-0.20511186 3.7725892 -2.3307781
0.045695186 3.9200401 -2.3778658
0.28548139 4.0610609 -2.4229589
0.49919808 4.1784153 -2.4504638
0.51705199 4.0766821 -2.2829909
0.53811342 3.9745321 -2.1126156
0.6067664 3.9247656 -1.9883212
0.67625046 3.8738899 -1.8617502
0.74441117 3.8191559 -1.7302431
0.81324184 3.7628372 -1.5958495
0.88080728 3.7023129 -1.45595
0.94599068 3.6358047 -1.3086261
0.99678987 3.5465567 -1.1368613
1.047276 3.4525142 -0.95802027
1.0961641 3.3514798 -0.76966679
1.1196219 3.2079973 -0.53468466
1.0919867 2.9801157 -0.20736736
-1.4657297 3.1524282 -1.9766003
-1.1973412 3.2909551 -2.0035355
-0.90001607 3.4632008 -2.0627601
-0.61665225 3.6275082 -2.1194377
-0.34646809 3.7842455 -2.1735923
-0.089054823 3.9334183 -2.2249434
0.1568408 4.0759373 -2.274029
0.42555207 4.2489204 -2.3546405
0.46996081 4.1788712 -2.2136517
0.46707159 4.0522289 -2.0175726
0.51294661 3.9769287 -1.8673327
0.58211577 3.9260473 -1.7388223
0.65039748 3.871901 -1.6058322
0.70831507 3.8025556 -1.4563924
0.76109338 3.7235911 -1.2955391
0.81375539 3.6408417 -1.1288466
0.86343837 3.5502496 -0.95199031
0.88133621 3.4121864 -0.72334564
0.86350369 3.2176495 -0.43161696
-1.3573515 3.3051901 -1.8345542
-1.0604825 3.471209 -1.8916063
-0.76925325 3.6375844 -1.95322
-0.49171913 3.7962232 -2.0120764
-0.2274307 3.9471557 -2.0679066
0.024831772 4.0912209 -2.1211972
0.3029539 4.2683787 -2.2094173
0.40638101 4.2627463 -2.1272261
0.38656777 4.1203508 -1.9122542
0.41017854 4.0212297 -1.7361648
0.46626556 3.9554553 -1.5907353
0.52076155 3.8850036 -1.4389093
0.57498729 3.8111596 -1.2818198
0.61276883 3.7137854 -1.0985196
0.63093686 3.5872841 -0.88224936
0.64187002 3.44557 -0.64663196
-1.2256775 3.4794321 -1.7154138
-0.9262042 3.6479669 -1.7822603
-0.64101076 3.8085523 -1.8460631
-0.36956239 3.9612851 -1.9066038
-0.11069441 4.1069117 -1.9642928
0.14079905 4.250432 -2.023715
0.32859564 4.3320913 -2.0259144
0.27598274 4.1574068 -1.7743442
0.27557653 4.0331669 -1.5692503
0.31975371 3.9539242 -1.4070158
0.3459419 3.8506904 -1.2178411
0.36874092 3.7390366 -1.0171441
-1.3365839 3.542671 -1.5851966
-1.0876932 3.6586688 -1.606354
-0.79453182 3.8212304 -1.6753476
-0.51565611 3.9757714 -1.7408104
-0.24989605 4.1230097 -1.8031361
0.010193825 4.2700691 -1.8691664
0.22384286 4.3748674 -1.8962085
0.085921049 4.1138725 -1.5501475
0.068336129 3.9715753 -1.3207335
-0.003554821 3.7639911 -1.0187585
-1.1946924 3.7240767 -1.4784265
-0.95037746 3.8362224 -1.5016575
-0.66584718 3.9906635 -1.5703685
-0.3928926 4.1395655 -1.6375835
-0.10454416 4.3092279 -1.7301964
0.085850358 4.3868628 -1.7312422
-0.78231537 4.0412054 -1.4315243
-0.51005387 4.1847162 -1.4969289
-0.21473503 4.3557167 -1.5954366
0 0 0 1 0 0 0 1 0 0 0 1 0 0 0 0 0 580 1 0 0
