ply
format ascii 1.0
comment PCL generated
element vertex 604
property float x
property float y
property float z
element camera 1
property float view_px
property float view_py
property float view_pz
property float x_axisx
property float x_axisy
property float x_axisz
property float y_axisx
property float y_axisy
property float y_axisz
property float z_axisx
property float z_axisy
property float z_axisz
property float focal
property float scalex
property float scaley
property float centerx
property float centery
property int viewportx
property int viewporty
property float k1
property float k2
end_header
-0.16365218 -2.7352695 2.2719595
-0.014477259 -2.7329905 2.2153099
0.13489136 -2.7176273 2.1604815
0.28495798 -2.6888025 2.1073368
0.43647477 -2.6397204 2.0565717
-0.50596082 -3.0247149 2.1940303
-0.35575104 -3.1694655 2.1177847
-0.21124241 -3.2108369 2.0571938
-0.0680779 -3.2101796 2.0025957
0.075137399 -3.203315 1.9487872
0.2185995 -3.1923892 1.8954138
0.36257094 -3.1739125 1.8428304
0.50714386 -3.1523385 1.7904209
0.6527862 -3.1214306 1.73882
0.7993775 -3.0880823 1.6871746
0.94765079 -3.044421 1.6362312
1.0972365 -2.9985399 1.5850756
1.2492257 -2.9410081 1.5345211
1.4133499 -2.7939463 1.4910033
1.5859267 -2.6109998 1.4489349
-0.70032275 -3.1326194 2.0890131
-0.54650116 -3.3264468 2.0077972
-0.40172556 -3.4088745 1.9429462
-0.26057836 -3.4284928 1.8867593
-0.12016509 -3.4281316 1.8331681
0.020260267 -3.4233084 1.7800893
0.16083619 -3.4163382 1.7272021
0.30171365 -3.4045482 1.6747577
0.4429664 -3.3907628 1.6224015
0.58484834 -3.3714974 1.5704398
0.72733122 -3.3504534 1.5184548
0.87081492 -3.3232858 1.4667971
1.0151017 -3.2948124 1.414984
1.1612835 -3.2547994 1.3637843
1.3102785 -3.1990473 1.3133339
1.4621332 -3.1318891 1.2631129
1.6162691 -3.0605564 1.2125045
1.7736312 -2.979883 1.1617459
1.934522 -2.8901913 1.1106848
2.1211932 -2.6681657 1.0651114
-2.6633515 -2.9862068 2.6884792
-2.5621982 -2.7814078 2.6706078
-2.5070765 -2.328476 2.6954789
-0.90113866 -3.1126735 2.0025506
-0.74009269 -3.3597653 1.9159822
-0.59157759 -3.4919455 1.845852
-0.44875962 -3.5681176 1.7835768
-0.30965617 -3.5834608 1.7288882
-0.17120492 -3.5830212 1.6760491
-0.032761015 -3.578156 1.6236615
0.10582133 -3.5715251 1.5714003
0.24467777 -3.5598273 1.5195479
0.38389114 -3.5463355 1.4677411
0.52368736 -3.5276339 1.41624
0.66407061 -3.5069969 1.3647109
0.8053686 -3.4808826 1.3133876
0.94744909 -3.453326 1.261912
1.0908418 -3.4194169 1.210579
1.235198 -3.3845413 1.1589762
1.3813825 -3.3419218 1.10746
1.5288177 -3.2980204 1.0555962
1.6784053 -3.2470553 1.0036266
1.8297883 -3.1929231 0.95129204
1.9854037 -3.1222265 0.89902079
2.1485 -3.0208302 0.84700453
2.315697 -2.9116809 0.79420853
2.4936159 -2.7647491 0.74114776
2.6516037 -2.7236617 0.68496799
2.7693748 -2.857342 0.62642872
2.8946378 -2.9473085 0.56946015
-2.6790257 -3.155755 2.5124199
-2.5748577 -2.978415 2.4880438
-2.4686301 -2.7896013 2.4638786
-2.3661075 -2.558084 2.44484
-1.1162233 -2.9534392 1.933066
-0.93866515 -3.3206134 1.8333333
-0.78259158 -3.5186892 1.7565037
-0.63753343 -3.6158247 1.6926543
-0.49681115 -3.6728387 1.633948
-0.35914165 -3.6828015 1.5804969
-0.2219426 -3.6826291 1.5281066
-0.084772684 -3.6787431 1.47605
0.052500926 -3.6734433 1.4240766
0.18997148 -3.6643019 1.3723621
0.32771531 -3.6536977 1.3206704
0.46589434 -3.6390729 1.2691616
0.60452092 -3.623013 1.2176067
0.74382806 -3.6028492 1.1661487
0.88374913 -3.5813801 1.1145694
1.0246276 -3.5554118 1.0630157
1.166281 -3.5283141 1.011264
1.3092364 -3.4959652 0.95947134
1.453615 -3.4589624 0.90753955
1.6007619 -3.409116 0.85566658
1.7494478 -3.3574765 0.80336165
1.9005772 -3.2990694 0.75071156
2.053901 -3.2366812 0.69756925
2.2099254 -3.1684871 0.64390004
2.3690352 -3.0936804 0.58962715
2.5261877 -3.0364819 0.53457129
2.6596444 -3.0880184 0.47911629
2.7882869 -3.1539528 0.4242489
-2.8339796 -3.3284721 2.3942432
-2.7077682 -3.2643638 2.350678
-2.6006489 -3.1096778 2.3209653
-2.4840796 -2.9806333 2.2857859
-2.3617506 -2.8638663 2.2475171
-2.2348466 -2.7556057 2.2068851
-2.0989337 -2.6825602 2.1602614
-1.9568566 -2.6356063 2.1093934
-1.8073788 -2.6293085 2.0527539
-1.6568592 -2.6293082 1.9952607
-1.5026038 -2.6585956 1.9342192
-1.3326125 -2.83127 1.8567823
-1.1483326 -3.186352 1.7606765
-0.98088366 -3.4538054 1.6773461
-0.82888067 -3.6084509 1.6080858
-0.68472701 -3.7018685 1.5462581
-0.54493588 -3.7565994 1.4888988
-0.40834218 -3.7648802 1.4361248
-0.27217937 -3.7647943 1.3841215
-0.1360676 -3.7608542 1.3324168
0.00014277641 -3.7556632 1.2807651
0.13652892 -3.7465737 1.2293284
0.27317911 -3.7360723 1.1778933
0.41023749 -3.7216978 1.1265829
0.54772425 -3.7059951 1.0752048
0.68586272 -3.6861944 1.0238746
0.82460833 -3.6649652 0.97241604
0.96425289 -3.6395953 0.92091405
1.1046723 -3.6128824 0.86921322
1.2463138 -3.5813217 0.81739676
1.3888974 -3.5486054 0.76530421
1.5330886 -3.5102334 0.71300721
1.6784347 -3.4706364 0.66035795
1.8257225 -3.4252687 0.60738468
1.9745064 -3.3779161 0.55398381
2.1254492 -3.325465 0.50012755
2.2795577 -3.2638674 0.4457247
2.4368243 -3.194777 0.39065811
2.5726089 -3.2282877 0.33636579
2.7003493 -3.2919111 0.28296545
-2.8633211 -3.4242129 2.2375503
-2.7457893 -3.331017 2.1980569
-2.6332922 -3.2061675 2.1623209
-2.5124607 -3.1047647 2.1220427
-2.3870678 -3.0129561 2.0794663
-2.2549427 -2.9437008 2.0330117
-2.1161885 -2.9011104 1.9824802
-1.9715058 -2.8870106 1.9280332
-1.8242432 -2.8870111 1.871784
-1.6769811 -2.8870106 1.8155347
-1.5268421 -2.9087431 1.7569276
-1.3627561 -3.051544 1.6859783
-1.189541 -3.3132977 1.6046499
-1.0253803 -3.5492549 1.5282745
-0.87448215 -3.696018 1.462133
-0.73193538 -3.775692 1.4030685
-0.5932582 -3.8225396 1.3473842
-0.4575431 -3.8288977 1.2951772
-0.32218948 -3.8288138 1.2434816
-0.18690014 -3.8251734 1.1920167
-0.051524781 -3.820549 1.1405758
0.083989434 -3.8125784 1.0892758
0.21973002 -3.8033593 1.0379616
0.35580918 -3.7908266 0.98671019
0.49226201 -3.7770209 0.93538976
0.62926078 -3.7597778 0.88406003
0.76679265 -3.7411406 0.83260727
0.90508646 -3.7189832 0.78106761
1.0440665 -3.6955013 0.72934246
1.18436 -3.6653404 0.67750263
1.3256671 -3.6330962 0.62539643
1.4684713 -3.595722 0.57301557
1.6123836 -3.5572381 0.52027571
1.7582314 -3.5126681 0.46714929
1.9054525 -3.4666572 0.4135817
2.0548728 -3.4150085 0.3595008
2.2062204 -3.3601918 0.30486718
2.3596082 -3.3022442 0.24963579
2.4983339 -3.3170793 0.19578776
2.6279075 -3.3693967 0.14326379
2.7689135 -3.3700349 0.089367241
-2.8996158 -3.4900682 2.0875859
-2.7851281 -3.3898528 2.0482104
-2.6715889 -3.2750268 2.0098321
-2.5510564 -3.1783247 1.9679952
-2.4233527 -3.1038074 1.922455
-2.2894084 -3.0510287 1.8735863
-2.1499445 -3.020539 1.8216406
-2.0058911 -3.0118537 1.7669947
-1.860207 -3.0118542 1.7113482
-1.7145231 -3.0118537 1.655702
-1.5655128 -3.0360951 1.5977317
-1.4045209 -3.1614456 1.530791
-1.2335154 -3.4045787 1.4549072
-1.0726995 -3.6069937 1.384685
-0.92355955 -3.7337081 1.3222121
-0.78120542 -3.8120165 1.2644348
-0.6428203 -3.8579085 1.2095821
-0.50754893 -3.8636973 1.1576614
-0.37263596 -3.8636136 1.1061329
-0.23780411 -3.8599684 1.0547901
-0.1028905 -3.8553743 1.0034573
0.03214521 -3.8474002 0.95222485
0.16740042 -3.8382416 0.90095991
0.3029758 -3.8257895 0.84971583
0.43891555 -3.8121014 0.79838634
0.5753783 -3.7950261 0.74700415
0.71236658 -3.7765121 0.6954838
0.85009056 -3.7545562 0.64383203
0.98849088 -3.731257 0.59198034
1.1278741 -3.7041328 0.53991938
1.2680988 -3.6756618 0.48759544
1.4095975 -3.6428704 0.43497273
1.5520762 -3.6090059 0.38202232
1.6961923 -3.5700569 0.32866752
1.8414814 -3.5299714 0.27491388
1.9887211 -3.484642 0.22064307
2.1375136 -3.4371946 0.16587132
2.2884183 -3.3852696 0.11048725
2.428652 -3.3886395 0.056776345
2.5589051 -3.4351475 0.0050029159
2.6923654 -3.4635451 -0.04720822
-2.9437191 -3.5244663 1.9434234
-2.8316956 -3.4182096 1.9037124
-2.7172792 -3.3107448 1.8631226
-2.595145 -3.224977 1.8189561
-2.4663346 -3.1598969 1.7716404
-2.3318148 -3.1146171 1.7215701
-2.192306 -3.0892982 1.669016
-2.0487018 -3.0831833 1.6143413
-1.9039189 -3.0831838 1.5590391
-1.7591366 -3.0831835 1.5037371
-1.6107408 -3.1086247 1.4463179
-1.4509619 -3.2270072 1.3818582
-1.2823174 -3.4469626 1.3110696
-1.1213146 -3.6469264 1.2437791
-0.97230977 -3.7709963 1.1832699
-0.83014834 -3.8480422 1.126737
-0.69205201 -3.893101 1.0726835
-0.55722946 -3.898299 1.0210353
-0.42275515 -3.8981886 0.96967387
-0.28837842 -3.8945394 0.9184522
-0.15392369 -3.8899736 0.86722732
-0.019363537 -3.8819964 0.81606102
0.11540882 -3.8729239 0.76484537
0.25048354 -3.8605809 0.71360898
0.38591641 -3.846926 0.66227388
0.52184838 -3.830018 0.61084223
0.65829617 -3.8116524 0.55925596
0.79545367 -3.7899246 0.50749588
0.93328363 -3.7667489 0.4555209
1.0720583 -3.7399168 0.40329102
1.2116728 -3.7116356 0.35078239
1.3525137 -3.679204 0.29792547
1.4943389 -3.6455653 0.24472758
1.6377395 -3.6070518 0.19106916
1.7822908 -3.5674424 0.137003
1.9287744 -3.5224819 0.08235383
2.0767591 -3.4755673 0.027187794
2.2268808 -3.4238813 -0.028656274
2.3676896 -3.4223137 -0.082394987
2.4978237 -3.4684534 -0.13343844
2.6293685 -3.5037279 -0.18470612
-2.991003 -3.546011 1.8016583
-2.8799772 -3.4389386 1.7608012
-2.7653453 -3.3354928 1.7185141
-2.6430802 -3.2533693 1.6730026
-2.5142746 -3.1912889 1.6247025
-2.3798323 -3.148572 1.5739688
-2.240519 -3.1250567 1.5210965
-2.0972183 -3.1199033 1.4664351
-1.9529001 -3.1199031 1.4113103
-1.8085816 -3.1199036 1.3561856
-1.660374 -3.1463857 1.2991918
-1.5004677 -3.2650154 1.2363946
-1.3322721 -3.4764943 1.1690863
-1.1716089 -3.6679087 1.1049458
-1.0227478 -3.787019 1.0463605
-0.88066876 -3.8610542 0.99101877
-0.7426368 -3.9044583 0.93766654
-0.60795236 -3.9093142 0.88615131
-0.47361815 -3.9092035 0.83484179
-0.33939546 -3.9056449 0.78362483
-0.20509955 -3.901228 0.73239231
-0.070718512 -3.8935156 0.68117505
0.063862875 -3.884768 0.62989622
0.19872102 -3.8728409 0.57855779
0.33392003 -3.8596067 0.52710807
0.46958739 -3.8432412 0.47552478
0.60574228 -3.8255377 0.42377466
0.74256563 -3.8045974 0.37181616
0.88003844 -3.7821634 0.31963116
1.0183995 -3.7562878 0.26715672
1.1575675 -3.7289755 0.2143949
1.2978944 -3.6977108 0.16124767
1.439176 -3.6651969 0.1077539
1.5819426 -3.6280713 0.053759664
1.7258022 -3.5899611 -0.0006377697
1.8715235 -3.5465417 -0.055669397
2.0186324 -3.5015283 -0.11120805
2.1678026 -3.451766 -0.16746512
2.3089261 -3.4469328 -0.22129956
2.439384 -3.4912004 -0.27177122
2.5703509 -3.5284624 -0.32233587
-3.0450711 -3.5424113 1.6631087
-2.9344475 -3.4356003 1.6208541
-2.8203361 -3.3319066 1.5772674
-2.6984494 -3.2496688 1.5307109
-2.5699277 -3.187453 1.48162
-2.4356968 -3.144485 1.4303484
-2.2964678 -3.120858 1.3771676
-2.153152 -3.1156361 1.3224257
-2.0087798 -3.1156361 1.2672805
-1.8644071 -3.1156371 1.2121351
-1.7160488 -3.141917 1.1554673
-1.5555477 -3.2602978 1.0941613
-1.3863022 -3.4715331 1.0295153
-1.2246063 -3.6633492 0.96775293
-1.0750909 -3.7826722 0.9106431
-0.93257958 -3.8569341 0.85620856
-0.79428351 -3.9003708 0.80338418
-0.65952051 -3.9052861 0.75190932
-0.52513433 -3.9052029 0.70057833
-0.39087793 -3.9016418 0.64929694
-0.25655356 -3.8972206 0.59798962
-0.12215798 -3.8895311 0.54665506
0.012431182 -3.8807213 0.49524656
0.14728299 -3.8687854 0.44373778
0.28246796 -3.8555963 0.39210171
0.41813517 -3.8384922 0.34028143
0.55429113 -3.8202682 0.28827447
0.6910063 -3.8004894 0.23605394
0.82842225 -3.7780671 0.18356571
0.9667148 -3.7521429 0.13074264
1.1058049 -3.7248096 0.077614933
1.2460364 -3.693521 0.024051309
1.3872173 -3.6609809 -0.02987501
1.5298617 -3.6238279 -0.084360331
1.6735954 -3.5856869 -0.13926175
1.8191761 -3.5421751 -0.19486859
1.9661342 -3.4970956 -0.25100163
2.1151278 -3.447293 -0.30791214
2.2561824 -3.4429674 -0.36179021
2.386878 -3.4873559 -0.41171148
2.5181751 -3.5241694 -0.46186247
-3.1012821 -3.5313611 1.5251653
-2.9916394 -3.4223132 1.481706
-2.8791761 -3.313513 1.4371729
-2.7585301 -3.2268827 1.3898352
-2.630909 -3.1608458 1.3401318
-2.4972303 -3.1147766 1.2884039
-2.3581698 -3.0890746 1.2349151
-2.2146695 -3.0828638 1.1800128
-2.0698833 -3.0828629 1.1247094
-1.9250966 -3.0828631 1.0694058
-1.7762628 -3.1087208 1.012931
-1.6143936 -3.2297244 0.95285511
-1.4420674 -3.4537158 0.89027691
-1.2778573 -3.657023 0.83049917
-1.1274765 -3.7783213 0.7748158
-0.98453033 -3.8528109 0.72129428
-0.84596962 -3.8962815 0.66899848
-0.71112525 -3.9012825 0.61756498
-0.57668889 -3.9012003 0.56621361
-0.44239941 -3.8976357 0.51486796
-0.30804563 -3.8932111 0.4634853
-0.173637 -3.8855155 0.4120343
-0.039039336 -3.876699 0.36049485
0.095856242 -3.8582988 0.3087028
0.23124097 -3.838716 0.25670677
0.36712301 -3.8190618 0.20451975
0.50350964 -3.7992506 0.15213773
0.6403743 -3.7798185 0.099578589
0.77777243 -3.7598059 0.046807289
0.91568023 -3.739747 -0.006159395
1.0541017 -3.7196116 -0.059323281
1.194157 -3.6891551 -0.1132609
1.3354285 -3.6550279 -0.16771612
1.4782363 -3.6158824 -0.22283086
1.622192 -3.5756629 -0.27839968
1.7680558 -3.5298519 -0.33477822
1.9153906 -3.4822264 -0.391745
2.0648298 -3.429729 -0.44958612
2.2057018 -3.4273486 -0.50342894
2.3363183 -3.4740739 -0.55264306
2.4678938 -3.5111837 -0.60236299
-3.1668687 -3.488101 1.38955
-3.0550025 -3.3870614 1.3438936
-2.9433129 -3.2756155 1.2980034
-2.8232796 -3.1862895 1.249567
-2.6979425 -3.1098046 1.1994766
-2.5657113 -3.0554085 1.1473929
-2.4272327 -3.0240033 1.0935889
-2.2834704 -3.0151286 1.0384196
-2.1378284 -3.0151281 0.98278928
-1.9921856 -3.0151281 0.92715865
-1.8424302 -3.0406148 0.87069547
-1.6774937 -3.1725252 0.81151688
-1.5028594 -3.4002194 0.75140893
-1.3365347 -3.6072268 0.69387567
-1.1841059 -3.7360444 0.63938487
-1.0397451 -3.8158352 0.58655554
-0.90023655 -3.8624732 0.53461909
-0.76488358 -3.868257 0.48308641
-0.63002974 -3.8681746 0.43157446
-0.49534637 -3.8644762 0.38002282
-0.36060348 -3.8598022 0.32842019
-0.22584143 -3.8506918 0.27668175
-0.090965107 -3.8295426 0.22455084
0.044444107 -3.8088984 0.17223111
0.1803765 -3.7882047 0.11971
0.31683511 -3.7674012 0.066984802
0.45382214 -3.7465162 0.014055341
0.59134066 -3.7255802 -0.039078504
0.72945058 -3.7037024 -0.092465669
0.86813855 -3.6815062 -0.14608279
1.0073969 -3.6592195 -0.19992045
1.1472245 -3.6368692 -0.25397733
1.2882438 -3.6091509 -0.30864492
1.4315124 -3.569469 -0.3645182
1.5759509 -3.52861 -0.42087248
1.7222543 -3.4823751 -0.47809485
1.8700886 -3.4339747 -0.53596485
2.0199292 -3.3812299 -0.5947268
2.1602006 -3.385087 -0.64819396
2.291467 -3.4323485 -0.69696403
2.4256518 -3.4607296 -0.74739599
-3.2359908 -3.434185 1.2535686
-3.1231964 -3.335768 1.2062082
-3.0159647 -3.2072334 1.1596639
-2.8993654 -3.1027215 1.1105853
-2.7744846 -3.0215104 1.059356
-2.6447623 -2.9524562 1.0068057
-2.5081236 -2.9072571 0.95265019
-2.3641207 -2.8925426 0.89700657
-2.2169287 -2.8925424 0.84078419
-2.069736 -2.8925426 0.78456157
-1.9186345 -2.9160681 0.7278682
-1.750351 -3.0553758 0.66964328
-1.5680155 -3.3194151 0.6114713
-1.3958044 -3.5565603 0.55599785
-1.241703 -3.6889253 0.50288832
-1.0961994 -3.7702889 0.45084652
-0.95578063 -3.8181362 0.39929062
-0.81978339 -3.8246415 0.34762692
-0.68438065 -3.8245289 0.29590282
-0.54916531 -3.8208005 0.24409315
-0.41393548 -3.8150492 0.19219002
-0.27898708 -3.7935615 0.13971052
-0.14349422 -3.7721848 0.087027907
-0.0074599897 -3.7513194 0.034160733
0.12910253 -3.7304013 -0.018910438
0.2662169 -3.7084858 -0.072235852
0.40389603 -3.6862807 -0.12578955
0.54214019 -3.6640124 -0.17956176
0.68095195 -3.6416535 -0.23355487
0.82033443 -3.6192315 -0.28776851
0.96029389 -3.5966861 -0.342208
1.1008329 -3.574049 -0.39687285
1.2419516 -3.5513473 -0.45176193
1.3843741 -3.5227771 -0.50740397
1.5296758 -3.4784944 -0.56482863
1.6775184 -3.424726 -0.62363601
1.8272407 -3.3677514 -0.68330061
1.9789809 -3.3074813 -0.74387932
2.1181626 -3.3222108 -0.79640198
2.2491066 -3.3761828 -0.84407294
2.3889296 -3.3820808 -0.89722407
-3.322161 -3.3246975 1.1193173
-3.1977718 -3.2638056 1.0682768
-3.0949612 -3.1179614 1.0205562
-2.9857886 -2.9824264 0.97100306
-2.8666193 -2.8735068 0.91917372
-2.744611 -2.7649515 0.86628079
-2.6137342 -2.6840351 0.811602
-2.4718797 -2.6458697 0.75520694
-2.3221862 -2.6427269 0.69784713
-2.1718361 -2.6427264 0.64041853
-2.0188253 -2.6582851 0.58287501
-1.8374966 -2.8551435 0.52501965
-1.6394428 -3.2009299 0.46940497
-1.4621885 -3.4561143 0.41648543
-1.3027128 -3.6172514 0.36490741
-1.1542691 -3.7138381 0.31380332
-1.0120572 -3.7706003 0.26277205
-0.87527835 -3.7789149 0.21100891
-0.7392965 -3.7788301 0.15906361
-0.60355723 -3.7744758 0.10696352
-0.46849275 -3.7525117 0.054100871
-0.3329632 -3.7277207 0.00089675188
-0.19681408 -3.7025568 -0.052565664
-0.060029425 -3.6773617 -0.10627255
0.07739348 -3.6520209 -0.16023168
0.21545896 -3.6265602 -0.21444318
0.35420102 -3.6000459 -0.26897416
0.49361902 -3.5734031 -0.32377085
0.6336751 -3.5473969 -0.37877437
0.77439719 -3.5212674 -0.43403944
0.9157899 -3.4950128 -0.48956791
1.0578581 -3.468632 -0.5453614
1.2006872 -3.4413736 -0.60149658
1.3442543 -3.4137106 -0.65793729
1.4897254 -3.3769431 -0.71563256
1.6387367 -3.3221803 -0.77572298
1.7897843 -3.2632775 -0.83683085
1.9421014 -3.2056668 -0.89834893
2.0803115 -3.2331257 -0.94954932
2.2124684 -3.2879884 -0.99685013
-3.2826324 -3.1587279 0.92979062
-3.1863601 -2.9870214 0.88058197
-3.091805 -2.7923975 0.83036935
-2.9992356 -2.5703342 0.7789278
-1.7279019 -2.9769146 0.32276848
-1.5317968 -3.3393207 0.2741105
-1.36834 -3.5142403 0.22434431
-1.217644 -3.6151252 0.1740903
-1.0736248 -3.674741 0.1233975
-0.9354254 -3.6849868 0.071352154
-0.79825455 -3.6849294 0.018953383
-0.66204941 -3.6692924 -0.03420493
-0.52590406 -3.6444359 -0.088008076
-0.38916728 -3.6185906 -0.14210871
-0.25178549 -3.5923891 -0.19648162
-0.11373546 -3.566678 -0.25107411
0.024965607 -3.5400791 -0.30597976
0.16434407 -3.5130832 -0.36117271
0.30441022 -3.4859247 -0.41664025
0.44516534 -3.4586923 -0.47237626
0.58661759 -3.4312947 -0.52839041
0.72877097 -3.4037621 -0.58468235
0.87160563 -3.3764257 -0.64122009
1.0154392 -3.3456545 -0.69838822
1.1606691 -3.308836 -0.75652778
1.3068539 -3.2718048 -0.81504738
1.4543132 -3.2321272 -0.87424552
1.6052725 -3.1746385 -0.93607056
1.7612567 -3.0937772 -1.0015079
1.9160271 -3.0326061 -1.0650551
2.0516248 -3.0877626 -1.1128541
2.1829634 -3.1579375 -1.1579384
-3.3835468 -3.0025706 0.78995311
-3.2992771 -2.7842078 0.73878694
-3.2631023 -2.366641 0.68867815
-1.6172588 -3.1193616 0.12544155
-1.4402502 -3.3705833 0.079664201
-1.2825303 -3.5116591 0.031681627
-1.1363051 -3.5770993 -0.018483907
-0.99663186 -3.5894051 -0.070764929
-0.85853028 -3.5858629 -0.12382284
-0.72184956 -3.5597391 -0.17830071
-0.58451533 -3.5334907 -0.23303905
-0.44675162 -3.501617 -0.28843018
-0.30827689 -3.4664485 -0.34437945
-0.1689153 -3.4312048 -0.40067384
-0.028662957 -3.395705 -0.45733073
0.11249449 -3.3593378 -0.51440871
0.2546103 -3.321166 -0.5720098
0.39770049 -3.2827327 -0.6300056
0.54175973 -3.2443466 -0.68836761
0.68674159 -3.2067628 -0.74701214
0.83268714 -3.168992 -0.80604112
0.97976279 -3.1291573 -0.86568117
1.1279945 -3.0877938 -0.92589545
1.2788539 -3.0320559 -0.98836291
1.4331715 -2.9596281 -1.0536019
1.5897901 -2.8837295 -1.1200212
1.7539917 -2.7695518 -1.1926639
1.9055945 -2.7517736 -1.2521161
2.0359156 -2.8594065 -1.29254
2.1646438 -2.9609694 -1.3328828
-1.5215645 -3.1675088 -0.071610421
-1.3587873 -3.3233776 -0.11798123
-1.2072793 -3.4124105 -0.16682449
-1.0646458 -3.4331622 -0.21920171
-0.92604053 -3.4123807 -0.27425125
-0.78793049 -3.3773689 -0.33055457
-0.64901197 -3.3410652 -0.3872979
-0.50923026 -3.3035696 -0.44449154
-0.36849672 -3.2661946 -0.50203681
-0.22682543 -3.2285066 -0.55997181
-0.084212311 -3.189466 -0.61840367
0.059448622 -3.1355724 -0.67874193
0.20475447 -3.0648313 -0.74141657
0.35189268 -2.9926212 -0.80494022
0.50088888 -2.9196284 -0.86925292
0.65175772 -2.8461397 -0.9343313
0.80529279 -2.7606535 -1.0016445
0.96344435 -2.6444533 -1.0738351
1.1247973 -2.5254102 -1.1475371
-1.4504005 -3.0285969 -0.27957419
-1.2859516 -3.1943684 -0.32317832
-1.1382148 -3.2371805 -0.37464765
-1.0014666 -3.1689296 -0.43478993
-0.86291206 -3.1017318 -0.49549994
-0.72279024 -3.0324764 -0.55704713
-0.58102757 -2.9610677 -0.61947072
-0.43748263 -2.8890657 -0.68264353
-0.29270533 -2.7944517 -0.74890769
-0.14588594 -2.6735976 -0.81899226
0.003987425 -2.5502651 -0.89053094
-1.2498136 -2.7023945 -0.56541431
-1.1124499 -2.5722916 -0.63484359
0 0 0 1 0 0 0 1 0 0 0 1 0 0 0 0 0 604 1 0 0
