ply
format ascii 1.0
comment PCL generated
element vertex 592
property float x
property float y
property float z
element camera 1
property float view_px
property float view_py
property float view_pz
property float x_axisx
property float x_axisy
property float x_axisz
property float y_axisx
property float y_axisy
property float y_axisz
property float z_axisx
property float z_axisy
property float z_axisz
property float focal
property float scalex
property float scaley
property float centerx
property float centery
property int viewportx
property int viewporty
property float k1
property float k2
end_header
-3.5266953 -2.7329302 0.43890363
-3.2795496 -2.7851324 0.39250785
-3.2075481 -2.7896502 0.25598907
-3.1518981 -2.7897437 0.11137152
-3.0965078 -2.789767 -0.033373266
-3.04038 -2.7899857 -0.1778039
-2.984688 -2.790087 -0.32244113
-2.9299443 -2.7899387 -0.46746734
-2.874758 -2.7899075 -0.61230737
-2.8186393 -2.7901182 -0.75680083
-2.7642369 -2.7898843 -0.901923
-2.7094181 -2.7897592 -1.0468774
-2.6543598 -2.7896969 -1.1917403
-2.599457 -2.7895954 -1.3366437
-2.6397574 -2.7654192 -1.5093088
-4.0015326 -2.4591293 0.19608968
-4.1537905 -2.4070411 -0.039875716
-4.2162771 -2.3783221 -0.22616228
-4.2444687 -2.358577 -0.39290679
-3.9848988 -2.4113972 -0.42897257
-3.9336181 -2.4115636 -0.56119621
-3.8830504 -2.4115512 -0.69373566
-3.8333802 -2.4113169 -0.82663071
-3.7825427 -2.4113724 -0.95904994
-3.7309711 -2.411607 -1.0912068
-3.6808085 -2.4114959 -1.2238884
-3.8738537 -2.3524108 -1.4383124
-3.7703948 -2.365459 -1.5502093
-3.63204 -2.3867519 -1.653017
-3.4285011 -2.4234002 -1.7394087
-3.0308521 -2.5058129 -1.7764442
-3.7718124 -2.3700113 0.31355971
-4.0478525 -2.2909245 0.012519181
-4.1537709 -2.2533708 -0.19628543
-4.2130604 -2.2273092 -0.37841022
-4.2238302 -2.2130055 -0.53536868
-4.2305217 -2.1998117 -0.68863225
-4.2020903 -2.1949813 -0.82559544
-4.17067 -2.1908972 -0.96072114
-4.1152411 -2.1924195 -1.086129
-4.0485859 -2.1965148 -1.2076252
-3.9637182 -2.2047458 -1.3232667
-3.8564291 -2.2180099 -1.4324548
-3.7233205 -2.2370031 -1.5350893
-3.5570655 -2.263293 -1.6300449
-3.3000433 -2.3097231 -1.7019336
-3.9144356 -2.1778181 0.078505099
-4.0469584 -2.1364856 -0.14523149
-4.1082582 -2.1114776 -0.33003855
-4.1305766 -2.095382 -0.49384296
-4.1378489 -2.0827761 -0.64885509
-4.1135516 -2.0772328 -0.78900206
-4.0820723 -2.0733159 -0.92549837
-4.0260358 -2.0747752 -1.0520558
-3.9585342 -2.0786979 -1.1746185
-3.8681831 -2.0874939 -1.2897074
-3.7593403 -2.1001573 -1.3998177
-3.6124985 -2.1207812 -1.4994931
-3.4290988 -2.1489406 -1.5908375
-3.1343248 -2.200289 -1.6535885
-3.6510091 -2.099314 0.37533414
-3.8836362 -2.0391102 0.093737662
-3.9906938 -2.0058279 -0.11833823
-4.0391502 -1.9850984 -0.29814142
-4.0597939 -1.9703468 -0.46232343
-4.0629635 -1.9593494 -0.61671352
-4.0395155 -1.9539213 -0.758403
-4.006752 -1.9504483 -0.89555472
-3.950628 -1.9517486 -1.0232525
-3.8836467 -1.9552262 -1.1471691
-3.7928638 -1.9634454 -1.2632501
-3.6875691 -1.9744787 -1.3756914
-3.5445278 -1.9929004 -1.4776611
-3.3745646 -2.0164583 -1.5741286
-3.1347671 -2.0535159 -1.6537175
-3.709923 -1.9377902 0.34520775
-3.8999362 -1.8902744 0.085676134
-3.9913626 -1.8624243 -0.11865774
-4.037612 -1.8436025 -0.29743156
-4.0498757 -1.8315145 -0.45790678
-4.0507689 -1.8217282 -0.61147964
-4.0167427 -1.8186882 -0.74899113
-3.9828784 -1.8156493 -0.88606399
-3.9267926 -1.8168261 -1.0141484
-3.8642635 -1.8191979 -1.140064
-3.7810655 -1.8253978 -1.2591059
-3.6779723 -1.8352238 -1.3724654
-3.54427 -1.8505976 -1.4775786
-3.39013 -1.8695679 -1.5788977
-3.1555901 -1.9030325 -1.6597924
-2.6857395 -1.9789268 -1.6807747
-3.7572994 -1.7801387 0.32098132
-3.9119544 -1.7427008 0.079732001
-3.9908671 -1.7192494 -0.11842069
-4.0379543 -1.7017257 -0.29758984
-4.044229 -1.6916306 -0.4553923
-4.0455866 -1.6825097 -0.60925508
-4.0069351 -1.6805111 -0.74493736
-3.9628193 -1.6794884 -0.87808943
-3.9106822 -1.6798702 -1.0079947
-3.8548379 -1.6808892 -1.1366091
-3.7755775 -1.6859263 -1.2571778
-3.6719685 -1.6950802 -1.3704472
-3.5441935 -1.7082566 -1.4775541
-3.3892047 -1.7259115 -1.5786145
-3.1677139 -1.7546011 -1.6633296
-2.8176515 -1.8045728 -1.7173421
-3.7962518 -1.6253192 0.30106241
-3.9211888 -1.5959489 0.075164735
-3.9870253 -1.57661 -0.11658466
-4.0334129 -1.5606575 -0.29549348
-4.0289068 -1.553154 -0.44856921
-4.0190639 -1.5465928 -0.59787118
-3.9783664 -1.5450679 -0.7331301
-3.9341602 -1.5441208 -0.86669528
-3.8818364 -1.5444767 -0.99697661
-3.825808 -1.5454166 -1.1259685
-3.7525926 -1.5490571 -1.2491045
-3.6604443 -1.5556314 -1.3665733
-3.5402236 -1.5665213 -1.476279
-3.3851056 -1.5827217 -1.5773582
-3.1777272 -1.6068364 -1.6662505
-2.868959 -1.6463015 -1.7315655
-3.5172434 -1.5279586 0.61435527
-3.8004475 -1.4769285 0.29891711
-3.927402 -1.4499283 0.072091997
-3.9806976 -1.4342273 -0.1135599
-4.0102468 -1.4222238 -0.28480145
-4.0008287 -1.4161108 -0.43606624
-3.991076 -1.410111 -0.58585835
-3.9496505 -1.4088097 -0.72126138
-3.9053059 -1.4079471 -0.85522461
-3.8528438 -1.408269 -0.98590255
-3.7961574 -1.4091966 -1.1151004
-3.7238035 -1.4123608 -1.2389913
-3.6312358 -1.4183761 -1.3567545
-3.5245197 -1.4263384 -1.4712347
-3.3792548 -1.4396636 -1.5755656
-3.1835616 -1.4599403 -1.6679528
-2.9091723 -1.4910158 -1.7427132
-3.5621347 -1.3690245 0.59063798
-3.8034945 -1.3288208 0.29735851
-3.9185596 -1.3061311 0.076465309
-3.9533048 -1.2944895 -0.10046673
-3.9810195 -1.2839123 -0.27131143
-3.9725842 -1.278259 -0.42348897
-3.9629235 -1.2728274 -0.57377458
-3.9207134 -1.2717401 -0.70930219
-3.8763027 -1.2709525 -0.84369433
-3.8236766 -1.2712442 -0.97476166
-3.7665002 -1.2721229 -1.1042299
-3.6948195 -1.2748641 -1.2288101
-3.6018801 -1.2803066 -1.3468862
-3.4960349 -1.2873423 -1.462086
-3.3546414 -1.2988248 -1.5680249
-3.1868453 -1.3135304 -1.6689107
-2.9390483 -1.3381549 -1.7509947
-3.5887785 -1.2136719 0.57656139
-3.7987804 -1.1817434 0.2997697
-3.8900506 -1.1644325 0.090565145
-3.9257808 -1.1539484 -0.087311208
-3.9516129 -1.144753 -0.2577388
-3.9441733 -1.1395915 -0.4108375
-3.9346056 -1.1347349 -0.56162006
-3.8912797 -1.1338816 -0.69713664
-3.8471251 -1.1331338 -0.83209473
-3.7943342 -1.1333945 -0.96355361
-3.7366879 -1.1342123 -1.0933025
-3.6656904 -1.136553 -1.2185781
-3.5715265 -1.1415135 -1.3366826
-3.4673879 -1.1475562 -1.4528842
-3.3252797 -1.1578271 -1.5590284
-3.1634285 -1.1702142 -1.6620793
-2.9353659 -1.1898823 -1.7499747
-2.484796 -1.2341158 -1.7844393
-3.6123984 -1.0594505 0.56408232
-3.774117 -1.0366335 0.31238121
-3.8613732 -1.0218948 0.10474849
-3.8980732 -1.0126036 -0.074067712
-3.9220264 -1.0047379 -0.24408305
-3.9148471 -1.0001783 -0.39777869
-3.9053497 -0.99590546 -0.54906321
-3.8616667 -0.99517983 -0.68489778
-3.817771 -0.99448329 -0.8204248
-3.7645621 -0.99473834 -0.95218194
-3.7066693 -0.99546325 -1.0822997
-3.6363628 -0.99742651 -1.2082762
-3.5408835 -1.0018833 -1.3263817
-3.4385786 -1.0069731 -1.4436302
-3.2952368 -1.0160676 -1.5498238
-3.1373644 -1.0265001 -1.6544759
-2.918319 -1.0428146 -1.7452486
-2.5308819 -1.0753634 -1.7965527
-3.6241121 -0.90703213 0.55789381
-3.7492776 -0.89079428 0.32508343
-3.8325255 -0.87851048 0.11901587
-3.8695962 -0.87049943 -0.060455829
-3.8922558 -0.86385912 -0.23034212
-3.8851907 -0.85992694 -0.38457268
-3.8756921 -0.8562507 -0.53633356
-3.8318715 -0.85562718 -0.67258352
-3.7881389 -0.85500234 -0.80864465
-3.7345586 -0.85523981 -0.94072163
-3.676466 -0.85586506 -1.0712287
-3.6067071 -0.85748738 -1.1978588
-3.5100267 -0.86139733 -1.3160086
-3.4096041 -0.86558628 -1.4343243
-3.2648554 -0.87348837 -1.5405152
-3.1111698 -0.88206464 -1.6468337
-2.8911481 -0.89611936 -1.7377164
-2.5473907 -0.92036158 -1.8008921
-3.6073346 -0.75713366 0.56675774
-3.7243116 -0.744214 0.33784992
-3.8035057 -0.73427194 0.13336843
-3.8409512 -0.72755641 -0.046764255
-3.8623023 -0.72210878 -0.21651712
-3.8553522 -0.71881169 -0.37128553
-3.8458266 -0.71573865 -0.52351457
-3.8019176 -0.71521389 -0.66020358
-3.7580731 -0.71469003 -0.79669189
-3.7043452 -0.71488726 -0.92918104
-3.6460514 -0.71541148 -1.0600805
-3.576098 -0.71676624 -1.1871068
-3.4789796 -0.72004455 -1.305572
-3.3804359 -0.72339082 -1.4249554
-3.2343206 -0.73006201 -1.5311596
-3.0848439 -0.73690242 -1.639154
-2.8638391 -0.74867415 -1.7301459
-2.5576372 -0.76625454 -1.8035853
-3.5895171 -0.60678869 0.57617122
-3.6992176 -0.59688687 0.35068232
-3.7743123 -0.58917159 0.14780748
-3.8126254 -0.58373791 -0.033225149
-3.8321629 -0.57947868 -0.20260638
-3.8253798 -0.57682168 -0.35793918
-3.8157759 -0.57435846 -0.51061642
-3.7717538 -0.57393616 -0.64773655
-3.7281022 -0.57349658 -0.78477716
-3.6740222 -0.5736658 -0.91759849
-3.6154239 -0.5740937 -1.0488541
-3.5462894 -0.57512152 -1.176636
-3.4477406 -0.57781708 -1.2950709
-3.3492808 -0.58048028 -1.4149483
-3.2036593 -0.58578038 -1.5217652
-3.0545127 -0.5912255 -1.6303058
-2.8363893 -0.60047328 -1.7225366
-2.5515099 -0.6133436 -1.8019743
-3.1941123 -0.47568974 0.96309382
-3.5628214 -0.45630699 0.59027559
-3.673996 -0.44880721 0.36357957
-3.7450752 -0.44319564 0.16226763
-3.7844968 -0.43906373 -0.019780219
-3.8018348 -0.43596068 -0.18860793
-3.7962167 -0.43390906 -0.3449527
-3.7855654 -0.43210116 -0.49764946
-3.7415571 -0.43177682 -0.63525623
-3.6979988 -0.43143615 -0.77280927
-3.6437449 -0.43156388 -0.90603387
-3.5845814 -0.43190247 -1.0375493
-3.5163555 -0.43262741 -1.1661205
-3.4168649 -0.43468282 -1.2846916
-3.3173954 -0.43671656 -1.4047066
-3.1736705 -0.44060445 -1.5125771
-3.0228772 -0.44475126 -1.6210763
-2.8084774 -0.45152432 -1.7147989
-2.5296574 -0.4609184 -1.796231
-3.2533576 -0.31531501 0.93077689
-3.5360107 -0.30501768 0.60444015
-3.6486447 -0.29996932 0.37654334
-3.7164013 -0.29632404 0.17644906
-3.7562046 -0.29355341 -0.0062574744
-3.7719889 -0.29152644 -0.1748327
-3.7668538 -0.29013973 -0.33187756
-3.755141 -0.28896111 -0.48459092
-3.7113786 -0.28873304 -0.6227839
-3.6677113 -0.28850454 -0.76076823
-3.6132817 -0.28859016 -0.89439797
-3.5538604 -0.28881881 -1.026289
-3.4862671 -0.2892794 -1.1555518
-3.3863351 -0.29065791 -1.2744288
-3.2854452 -0.29204959 -1.3944442
-3.1435075 -0.29458651 -1.5033348
-2.9916482 -0.29737678 -1.6119659
-2.7799788 -0.3018114 -1.7068987
-2.512665 -0.30775002 -1.7917643
-3.227392 -0.15805173 0.94494075
-3.5090556 -0.15291594 0.61868089
-3.623137 -0.15036771 0.38958699
-3.6876121 -0.14859231 0.1906876
-3.7278004 -0.14719892 0.0073196888
-3.7423224 -0.14620195 -0.16114023
-3.737314 -0.1455044 -0.31872308
-3.7247586 -0.14492519 -0.47154993
-3.681015 -0.14480855 -0.61023432
-3.6372371 -0.1446936 -0.74865365
-3.5826316 -0.14473668 -0.88269073
-3.5230026 -0.1448517 -1.0149782
-3.4559729 -0.14507166 -1.1449101
-3.3555942 -0.14576505 -1.2640951
-3.2537324 -0.14647248 -1.3842583
-3.1132255 -0.14771846 -1.4940569
-2.9599192 -0.14913179 -1.6027093
-2.7513585 -0.15130341 -1.6989646
-2.4948208 -0.15412085 -1.7870743
-3.1961908 4.7902195e-06 0.96196014
-3.4819274 4.7902195e-06 0.63301402
-3.5975249 4.7902195e-06 0.40268391
-3.6579626 4.7902195e-06 0.20535177
-3.6992321 4.7902195e-06 0.020974398
-3.711772 4.7902195e-06 -0.14703968
-3.7075953 4.7902195e-06 -0.30548948
-3.6939812 4.7902195e-06 -0.4583399
-3.6504633 4.7902195e-06 -0.5976072
-3.6066005 4.7902195e-06 -0.73647344
-3.551791 4.7902195e-06 -0.87091029
-3.4918742 4.7902195e-06 -1.0035682
-3.4254689 4.7902195e-06 -1.1341951
-3.324667 4.7902195e-06 -1.2536986
-3.2214673 4.7902195e-06 -1.3738945
-3.0827668 4.7902195e-06 -1.484725
-2.9279413 4.7902195e-06 -1.5933805
-2.7225566 4.7902195e-06 -1.69098
-2.47664 4.7902195e-06 -1.7822955
-3.1529884 0.15919779 0.98552579
-3.4546814 0.15375157 0.64740866
-3.5711255 0.15116316 0.41618401
-3.6281061 0.1494962 0.22011805
-3.6704977 0.14806511 0.034708917
-3.6808996 0.14712486 -0.13279009
-3.6776972 0.14639576 -0.29217604
-3.6630361 0.14584291 -0.44505829
-3.6195138 0.14571828 -0.58481562
-3.5757489 0.14559846 -0.72420883
-3.5207868 0.14564207 -0.85906804
-3.4602866 0.14576504 -0.99199045
-3.3948076 0.14595814 -1.1234245
-3.2930083 0.14666735 -1.2430561
-3.1889994 0.14740072 -1.3634657
-3.05182 0.14859509 -1.4752433
-2.8957989 0.15004219 -1.5840039
-2.6934519 0.15212248 -1.6829121
-2.4503589 0.15474889 -1.7753878
-3.1002693 0.32000133 1.0142829
-3.4272592 0.30833155 0.66189653
-3.54497 0.30311197 0.42955905
-3.5981774 0.29988718 0.23492068
-3.6412756 0.2969991 0.048676729
-3.649833 0.29516882 -0.11845136
-3.6468806 0.29369837 -0.27845314
-3.6318707 0.29259816 -0.43168122
-3.588264 0.29234654 -0.57190037
-3.5447054 0.29209617 -0.71186697
-3.4893765 0.29218933 -0.84707022
-3.4285281 0.29244065 -0.98034942
-3.3639612 0.29279602 -1.1125889
-3.260824 0.29424807 -1.2322371
-3.1563263 0.29572406 -1.3529713
-3.0202637 0.2980766 -1.465575
-2.8636084 0.30098417 -1.5746129
-2.6649401 0.30503735 -1.6750083
-2.4010906 0.31086364 -1.7624381
-3.0379326 0.48285612 1.0482862
-3.3777852 0.46474972 0.68803495
-3.519284 0.45582986 0.44269365
-3.5685577 0.45116386 0.24956977
-3.612042 0.44680727 0.062649906
-3.6192355 0.4441157 -0.10432908
-3.6162944 0.44190234 -0.26483327
-3.6006937 0.44027099 -0.41829994
-3.5569506 0.43989235 -0.55895793
-3.5133092 0.43951327 -0.69938582
-3.4577441 0.4396562 -0.834988
-3.3967028 0.44003445 -0.96868432
-3.332844 0.44052997 -1.1016583
-3.2290449 0.44272962 -1.2215544
-3.1240909 0.44495609 -1.3426175
-2.9891753 0.44842944 -1.4560499
-2.8312812 0.45283639 -1.565182
-2.6367924 0.45873407 -1.6672051
-2.3439481 0.46867764 -1.7474182
-2.9582224 0.64867675 1.0917659
-3.3235352 0.62296128 0.7166968
-3.4923024 0.6094023 0.45649111
-3.5381327 0.60337919 0.26461726
-3.5827425 0.59749335 0.076654196
-3.5883157 0.59399176 -0.090057969
-3.5859461 0.59099698 -0.25131932
-3.5691872 0.5888806 -0.40477642
-3.5256534 0.58835387 -0.54602289
-3.4818759 0.58784676 -0.68688905
-3.4261537 0.58803701 -0.8229214
-3.3648682 0.58854598 -0.95701534
-3.301729 0.58915609 -1.0907283
-3.1974566 0.59210682 -1.2109361
-3.0910091 0.59515119 -1.3319921
-2.9578161 0.59967548 -1.4464413
-2.7984633 0.6056245 -1.555608
-2.5882568 0.61435783 -1.6537502
-2.2833703 0.62827241 -1.7314956
-3.2603707 0.78349835 0.75006801
-3.4390788 0.76577276 0.48370773
-3.5064225 0.75660568 0.28030074
-3.5530005 0.74908853 0.090870023
-3.556664 0.74484169 -0.075449049
-3.5553854 0.74100518 -0.23771101
-3.5374813 0.73843205 -0.39116791
-3.4941337 0.73774779 -0.53299576
-3.4502459 0.73710996 -0.67431462
-3.3943391 0.73734933 -0.81076938
-3.3326428 0.73800331 -0.94520366
-3.2703967 0.7386899 -1.0797223
-3.1653407 0.74242282 -1.2001395
-3.0577168 0.74630016 -1.3212979
-2.925144 0.75189984 -1.4364309
-2.7586267 0.75982779 -1.5439863
-2.5255692 0.77232772 -1.6363733
-2.2070391 0.7906481 -1.7114322
-3.1793258 0.94758445 0.79288644
-3.3759956 0.92464542 0.51596624
-3.4525228 0.91278613 0.30695832
-3.522862 0.90160847 0.10527533
-3.5248108 0.89665085 -0.060746729
-3.5240438 0.89198673 -0.2237542
-3.5055466 0.8889367 -0.37746078
-3.4621444 0.88810563 -0.51977456
-3.4184444 0.88730925 -0.66167176
-3.3623512 0.88759828 -0.79855072
-3.3001025 0.88841647 -0.93327647
-3.2376289 0.88924575 -1.0682123
-3.1323516 0.89372981 -1.1890502
-3.0242109 0.89841217 -1.3105359
-2.8839467 0.90576905 -1.4238086
-2.6962173 0.9170534 -1.52578
-2.4562392 0.93260741 -1.6171536
-1.9092083 0.97363377 -1.6331494
-3.2565677 1.0913841 0.57703704
-3.3873024 1.0717778 0.3392151
-3.4655962 1.0578681 0.13264728
-3.480876 1.0506649 -0.040468901
-3.4919357 1.0439748 -0.2094568
-3.4734089 1.0404019 -0.36366713
-3.4298992 1.0394263 -0.50644755
-3.3864152 1.038458 -0.6489383
-3.3299153 1.0388194 -0.78616178
-3.2673283 1.0397912 -0.9212634
-3.204596 1.0407677 -1.0566084
-3.0944049 1.0464729 -1.1762941
-2.9733648 1.053198 -1.2942045
-2.82267 1.0627865 -1.4050338
-2.6170328 1.0776823 -1.5026796
-2.2717204 1.1060976 -1.5660014
-3.2192612 1.245092 0.42232531
-3.3481531 1.2230365 0.18878299
-3.3957381 1.210887 -0.0011735559
-3.4195352 1.2016803 -0.17721659
-3.4179988 1.1955522 -0.33988407
-3.3837481 1.193319 -0.48737302
-3.3509703 1.190937 -0.63484716
-3.2901709 1.1918272 -0.77098083
-3.2163208 1.1942126 -0.90256721
-3.1444559 1.1963459 -1.0354829
-3.0142338 1.2051167 -1.1493441
-2.8775189 1.214536 -1.2634192
-2.6783841 1.2309113 -1.360826
-2.4077096 1.2551633 -1.441614
-3.0382543 1.4176089 0.33690774
-3.2148898 1.3864491 0.082297683
-3.2632611 1.3726928 -0.10762802
-3.2878046 1.362236 -0.28400248
-3.2616279 1.3585699 -0.43690097
-3.2355909 1.3549234 -0.58897787
-3.1714721 1.3562793 -0.72564173
-3.0895855 1.3599256 -0.85611355
-2.9989874 1.3646588 -0.98438472
-2.8441131 1.3775952 -1.0921566
-2.6701574 1.3928378 -1.1968145
-2.1440427 1.6997277 0.57654959
-2.7711055 1.598008 0.11152858
-2.9641349 1.5612175 -0.14507851
-2.9919999 1.5489856 -0.32546297
-2.984448 1.5420375 -0.48913527
-2.9114432 1.5446421 -0.62631947
-2.8072853 1.5517095 -0.75263929
-2.5907798 1.5748116 -0.84099269
-2.0689337 1.6412324 -0.83157325
-2.0392392 1.886842 0.62492174
-2.3010383 1.8342887 0.32084858
-2.3948801 1.8094708 0.099255264
-2.4322047 1.7940112 -0.094098747
-2.4061251 1.7888677 -0.25922132
-2.3363557 1.7907386 -0.4066557
-2.2199914 1.7999762 -0.53737277
-2.0466106 1.8181112 -0.64984101
-1.7875905 1.849499 -0.73699689
-1.9628581 2.0720015 0.66017586
-2.2319539 2.0133038 0.35161179
-2.3075166 1.9893924 0.13675338
-2.3217199 1.9765083 -0.048435271
-2.2897148 1.9718314 -0.21294266
-2.2224305 1.9733351 -0.3631404
-2.1175816 1.9813195 -0.49983564
-1.9624809 1.9978677 -0.62028885
-1.7171102 2.0296988 -0.7133044
-1.9194965 2.2530499 0.68018919
-2.1650059 2.1939516 0.38142389
-2.2438214 2.1673579 0.16409218
-2.2586541 2.1532166 -0.022369802
-2.2269249 2.1480353 -0.18798062
-2.1592176 2.1496828 -0.33899453
-2.0532153 2.1584876 -0.47624266
-1.8956718 2.1768081 -0.59682053
-1.6477953 2.211693 -0.69000399
-0.86348319 2.3451934 -0.61651278
-1.4078879 2.5463741 1.1161888
-1.9392564 2.4222476 0.67106885
-2.1155188 2.3729644 0.4034602
-2.1832623 2.3465519 0.19008511
-2.1964166 2.3316014 0.0033530593
-2.1643219 2.32603 -0.16309261
-2.0963655 2.3277886 -0.3149876
-1.9902155 2.3372347 -0.45315036
-1.8367941 2.3560727 -0.57613897
-1.6111393 2.3891432 -0.67768145
-1.2537963 2.4480433 -0.74188113
-1.4146355 2.7413671 1.3148603
-1.7692935 2.6472189 0.94344467
-1.9910837 2.5837052 0.64714831
-2.1000409 2.5458953 0.41035265
-2.1504002 2.521415 0.20419008
-2.1556454 2.5070951 0.020204127
-2.1202595 2.5017979 -0.14557534
-2.0526662 2.5035536 -0.298296
-1.9516277 2.512521 -0.43900651
-1.8114655 2.52981 -0.56724131
-1.616663 2.558614 -0.67953837
-1.3375506 2.6050737 -0.76878309
-0.92683613 2.6789393 -0.82416987
-1.7429997 2.8451653 1.1524575
-1.9173886 2.7882786 0.87265784
-2.0401311 2.744283 0.62450987
-2.1128194 2.7125974 0.40466243
-2.144506 2.6908965 0.20671982
-2.1434395 2.6770928 0.025248587
-2.103065 2.67259 -0.13873982
-2.0360191 2.674315 -0.29193687
-1.9421692 2.6822028 -0.43553966
-1.8169399 2.6972077 -0.56916428
-1.64904 2.7217987 -0.690422
-1.4286435 2.7580607 -0.79804176
-1.1501974 2.8070724 -0.89260572
-0.80871701 2.8697617 -0.97514081
-1.9377416 2.9732327 1.0561411
-2.0412884 2.9310594 0.81343657
-2.1122241 2.8975766 0.5912351
-2.149487 2.8729143 0.38833451
-2.1621706 2.8546591 0.19913799
-2.1521661 2.8422396 0.021641314
-2.1099422 2.8379242 -0.14147353
-2.0438104 2.8395412 -0.29491341
-1.9570005 2.8462069 -0.44097611
-1.8417823 2.8597283 -0.57789052
-1.6915385 2.8816054 -0.70470816
-1.5110897 2.9105482 -0.82452345
-1.3033483 2.945751 -0.93952936
-2.1473138 3.0749452 0.76275867
-2.187737 3.047811 0.55638212
-2.2077594 3.0263946 0.36238593
-2.2017691 3.0120926 0.18214178
-2.1823099 3.0014882 0.0091834068
-2.1386061 2.9973483 -0.15286937
-2.0732436 2.9988985 -0.30615568
-1.9939491 3.0040462 -0.45451933
-1.8844383 3.0169392 -0.59287483
-1.7559264 3.0345798 -0.72635305
-1.6131995 3.0556724 -0.85732055
-1.4302623 3.0867729 -0.9784146
-2.2679932 3.1944597 0.5193395
-2.2787731 3.1745706 0.33076376
-2.2614868 3.1627367 0.15650982
-2.2328217 3.1541905 -0.01169318
-2.1877763 3.1502645 -0.17241663
-2.1232686 3.1517358 -0.32526356
-2.0497279 3.1556652 -0.47496468
-1.9480193 3.167227 -0.61520869
-1.8390083 3.1806507 -0.75428122
-1.6842302 3.2062788 -0.88013589
-2.2952006 3.3192754 0.14203942
-2.2824154 3.3056827 -0.032190382
-2.2437506 3.2997675 -0.19466919
-2.1779227 3.3017826 -0.34613961
-2.0970976 3.3081 -0.49232769
-1.9488235 3.3336923 -0.61549109
0 0 0 1 0 0 0 1 0 0 0 1 0 0 0 0 0 592 1 0 0
