ply
format ascii 1.0
comment PCL generated
element vertex 605
property float x
property float y
property float z
element camera 1
property float view_px
property float view_py
property float view_pz
property float x_axisx
property float x_axisy
property float x_axisz
property float y_axisx
property float y_axisy
property float y_axisz
property float z_axisx
property float z_axisy
property float z_axisz
property float focal
property float scalex
property float scaley
property float centerx
property float centery
property int viewportx
property int viewporty
property float k1
property float k2
end_header
0.44117942 2.5077345 -1.0738933
0.5888896 2.5977545 -1.0044336
0.73623371 2.6564255 -0.93965471
0.88294321 2.7035565 -0.87678933
1.0320826 2.7086828 -0.81908059
1.1835611 2.6888366 -0.7640959
-0.67322963 2.6476295 -1.3070806
-0.51312041 2.8657296 -1.2174915
-0.36345923 2.9314795 -1.1517544
-0.21555656 2.9923928 -1.0873195
-0.069259442 3.0439377 -1.0247194
0.075770102 3.0889144 -0.96345937
0.21979636 3.1265516 -0.90353978
0.36309028 3.157052 -0.84482992
0.50583792 3.1823869 -0.78700244
0.6484952 3.197917 -0.73048759
0.79093951 3.2108366 -0.67439449
0.93386316 3.2138429 -0.61941051
1.0769887 3.2139053 -0.56473327
1.2305118 3.1164646 -0.51879585
1.3997927 2.9075873 -0.48136699
-1.3157088 2.7898376 -1.3637918
-1.1561103 2.9004498 -1.2900125
-1.0005186 2.9972732 -1.2193619
-0.8477931 3.088531 -1.1504508
-0.69829023 3.1651413 -1.0844681
-0.55231678 3.2098033 -1.0235357
-0.40769327 3.2485485 -0.9638046
-0.26413867 3.2836297 -0.90490639
-0.12152798 3.3139441 -0.84692109
0.02031859 3.3400857 -0.78971088
0.16155481 3.3625104 -0.73316514
0.30233997 3.3804393 -0.67731225
0.44277984 3.3955836 -0.62191403
0.58310872 3.405426 -0.56717265
0.72333252 3.4130144 -0.51273251
0.86377251 3.4152806 -0.45882648
1.0043542 3.4153109 -0.40512562
1.1499144 3.3664417 -0.35518968
1.3037682 3.255918 -0.30923033
1.4805684 2.9868584 -0.27287769
-2.2406802 2.9069593 -1.5350686
-2.1130939 2.7997019 -1.4972104
-1.9845883 2.6818051 -1.4600799
-1.8152204 2.8070302 -1.3826897
-1.6473701 2.9437659 -1.3047122
-1.485018 3.0648637 -1.2304202
-1.332076 3.132112 -1.1651829
-1.1811743 3.1961274 -1.1010528
-1.0327345 3.2510366 -1.0387863
-0.88587749 3.3035083 -0.97737134
-0.74078947 3.3494148 -0.91729796
-0.5970515 3.3918552 -0.85809159
-0.45459372 3.4293671 -0.79987395
-0.31320617 3.4627361 -0.74248517
-0.17272717 3.4922423 -0.68583524
-0.03301198 3.5172658 -0.62993145
0.10612812 3.535471 -0.57493889
0.24491009 3.5488415 -0.52057302
0.38342524 3.5601213 -0.46652132
0.52182108 3.5678241 -0.41287762
0.66014779 3.5734041 -0.35947585
0.79859662 3.5753107 -0.30639964
0.93715304 3.5753694 -0.25346994
1.0787847 3.5437102 -0.20258164
1.228176 3.4485843 -0.1551646
1.3896916 3.2739742 -0.11117589
1.5862751 2.872179 -0.076828361
3.1443217 2.5524747 0.48587596
3.2108729 2.8625026 0.54273188
-2.2551754 3.1167514 -1.3539134
-2.1238878 3.046452 -1.3098757
-1.9824464 3.0244889 -1.257759
-1.8236318 3.1072221 -1.1899067
-1.6678095 3.1838672 -1.1237265
-1.5143998 3.2570055 -1.0587727
-1.3640499 3.3202758 -0.9958452
-1.2162577 3.3748448 -0.93465102
-1.0711663 3.4158545 -0.87566674
-0.92732012 3.4544053 -0.81737196
-0.78473854 3.4889359 -0.75990951
-0.64320683 3.5204966 -0.70310616
-0.50262368 3.548842 -0.64694476
-0.36287165 3.5738435 -0.59139132
-0.22380853 3.5962191 -0.53632927
-0.085343368 3.6149797 -0.48180979
0.052655302 3.6315279 -0.42766064
0.19029272 3.6446381 -0.3739484
0.32765549 3.6557508 -0.32051474
0.4648875 3.6632621 -0.2674439
0.60203707 3.668803 -0.21457601
0.73928177 3.6708214 -0.16197765
0.87663102 3.6708789 -0.10950994
1.016633 3.6421459 -0.058531106
1.1620784 3.5684118 -0.0093842745
1.315207 3.4451303 0.038391173
1.4887044 3.1892462 0.082422167
1.7040141 2.6857505 0.12090379
2.9082551 2.6620052 0.57881927
3.0098128 2.8512766 0.63406056
3.1072271 3.0381613 0.6875118
3.2099431 3.189466 0.73989588
-2.414993 3.300426 -1.236236
-2.2822058 3.2549548 -1.1888089
-2.1499777 3.2005219 -1.1422445
-2.0050981 3.2093954 -1.0862628
-1.8515278 3.2721457 -1.0230595
-1.7005581 3.3282573 -0.96133029
-1.5513029 3.3822627 -0.90040839
-1.4042354 3.4298186 -0.84078944
-1.2586462 3.4749701 -0.78190923
-1.1146942 3.5152788 -0.72400498
-0.97201967 3.5527022 -0.66679776
-0.83056343 3.5865943 -0.61031139
-0.69017172 3.6172512 -0.55446637
-0.55069911 3.6451302 -0.4991734
-0.41206929 3.6694665 -0.44445902
-0.27411646 3.6914816 -0.39017117
-0.13677117 3.7097743 -0.33638507
0.00010877196 3.7259514 -0.2829299
0.13661863 3.7387788 -0.22985888
0.27284932 3.7497287 -0.17703027
0.40893769 3.7570252 -0.1245206
0.54493189 3.7624998 -0.072179019
0.68099344 3.7646534 -0.020052075
0.81715477 3.7647381 0.031963021
0.95558465 3.7388358 0.082962513
1.0991186 3.6684275 0.13268825
1.2496763 3.5514653 0.18172514
1.4136971 3.3506365 0.22983029
1.5970621 3.046356 0.27783167
1.7915282 2.7194343 0.32843363
1.9566001 2.623281 0.38452148
2.1073184 2.6225889 0.4420405
2.2579231 2.6225886 0.49956638
2.4060209 2.6350527 0.55703759
2.5446346 2.690413 0.61399275
2.6724377 2.787343 0.66982943
2.7946262 2.8975067 0.72448003
2.9116805 3.0170083 0.77784574
3.0187201 3.1629629 0.82930213
3.1229627 3.3056953 0.87945676
-2.4479949 3.3966448 -1.0805074
-2.3182507 3.3434525 -1.0340315
-2.1868331 3.2919419 -0.98681891
-2.0405631 3.3144975 -0.92964184
-1.8881992 3.376183 -0.86786997
-1.7385603 3.4304819 -0.80756688
-1.5905906 3.4827332 -0.74802005
-1.4451385 3.5259461 -0.68995845
-1.3013749 3.5641799 -0.63283026
-1.1589661 3.5987904 -0.57642949
-1.017694 3.6306279 -0.5206238
-0.87744772 3.6597679 -0.46536613
-0.73814988 3.6858497 -0.41064787
-0.59963 3.7098317 -0.35634845
-0.46185619 3.7306299 -0.30251843
-0.32466555 3.7495861 -0.24901795
-0.18801266 3.7653899 -0.19590557
-0.051770546 3.7793951 -0.14305419
0.084137879 3.7904038 -0.090503931
0.21979786 3.7998424 -0.038139582
0.35531542 3.8062849 0.01399684
0.49074805 3.8109779 0.065999418
0.62622112 3.8128874 0.1178562
0.7617715 3.8130002 0.16963831
0.89909309 3.7916162 0.22085151
1.0405773 3.7321692 0.27144933
1.1877108 3.6342573 0.32197618
1.3458533 3.4654903 0.37260273
1.520757 3.2028446 0.42419216
1.6979486 2.970058 0.47838563
1.8582313 2.8812079 0.53446013
2.0063107 2.876862 0.59076947
2.1537008 2.8768611 0.64706749
2.3006029 2.8793507 0.70332336
2.4423041 2.9064317 0.75901759
2.5768239 2.9628348 0.81366754
2.7055228 3.0379996 0.86718136
2.8285553 3.1284266 0.91941494
2.9432027 3.2423534 0.96980733
3.0488667 3.3787065 1.0180677
-2.4894924 3.4511046 -0.93262601
-2.359396 3.4040036 -0.88498032
-2.2271984 3.3614433 -0.83633482
-2.0808322 3.3886087 -0.77924752
-1.9307071 3.441164 -0.71962082
-1.7828957 3.4876537 -0.66114175
-1.6365347 3.5323081 -0.6032964
-1.4919162 3.5724931 -0.54631078
-1.3486148 3.6102591 -0.48993337
-1.2066405 3.644696 -0.43420744
-1.0658419 3.6760657 -0.37906402
-0.92605239 3.7049351 -0.32441467
-0.78722399 3.7306867 -0.27026796
-0.6491704 3.754415 -0.21650505
-0.5118736 3.7749293 -0.16317087
-0.37515819 3.7937019 -0.11013442
-0.23899126 3.80932 -0.057444572
-0.10323698 3.8232954 -0.0049837232
0.032169797 3.8342152 0.047211587
0.16732307 3.8435483 0.099241108
0.30231982 3.849966 0.15108421
0.43722406 3.8546214 0.20281529
0.5721513 3.8565993 0.25443894
0.7071498 3.8567114 0.30600864
0.84373462 3.8363686 0.35729533
0.9842447 3.778264 0.40844053
1.130121 3.682312 0.45999068
1.2857125 3.5233107 0.51251185
1.4532878 3.3022137 0.56691206
1.6254891 3.0879543 0.62337637
1.7823691 3.0087717 0.67985821
1.9291873 3.0021806 0.73565131
2.0749934 3.0021801 0.79134429
2.2205698 3.0033822 0.84700191
2.3629129 3.0202796 0.90210629
2.4996772 3.0609424 0.95611262
2.6302457 3.1241348 1.0087314
2.7543228 3.2075472 1.0597494
2.8726242 3.3053565 1.1091869
2.9825861 3.425118 1.1563929
3.1184285 3.4416149 1.2089969
-2.533452 3.4926004 -0.78763831
-2.4040308 3.4458513 -0.7395581
-2.2720675 3.4057283 -0.69031513
-2.1253018 3.4371943 -0.63334405
-1.9756888 3.4889057 -0.57469893
-1.8283238 3.5349972 -0.51707518
-1.6824543 3.5789473 -0.46008468
-1.5382874 3.6187363 -0.4038651
-1.3954667 3.6558957 -0.34823596
-1.2539268 3.6901317 -0.29318058
-1.1136016 3.7210116 -0.23868662
-0.97438276 3.7483358 -0.18471813
-0.83609909 3.772553 -0.13119698
-0.6985473 3.7949703 -0.07800734
-0.56172764 3.8142917 -0.025187135
-0.42546171 3.8320327 0.027375758
-0.28972876 3.8467588 0.07964772
-0.15439227 3.8599689 0.13172439
-0.019398436 3.8703136 0.18358716
0.11534905 3.8791125 0.23531103
0.24993521 3.8851836 0.28689426
0.38442466 3.8896143 0.33839297
0.51892203 3.8915241 0.38982174
0.65348125 3.8916068 0.44122121
0.78939223 3.8731191 0.49259898
0.92882723 3.8188658 0.54428667
1.073082 3.7294888 0.59679782
1.2267947 3.5751352 0.65103918
1.3923435 3.3565004 0.70793927
1.5612087 3.1541104 0.76657677
1.716157 3.0797231 0.82360661
1.8622925 3.0716083 0.87919044
2.007221 3.0716083 0.9345482
2.1520357 3.0722184 0.98988008
2.2943704 3.0852017 1.0446233
2.4319954 3.1188519 1.0981662
2.5642111 3.1728096 1.1502314
2.6902945 3.2468686 1.2005364
2.8092601 3.3419228 1.248731
2.9198945 3.4595609 1.2943976
3.0469511 3.5066998 1.3442945
-2.583571 3.5062246 -0.64660931
-2.4540818 3.4615676 -0.59779561
-2.3219416 3.4241531 -0.54786468
-2.1752663 3.4555745 -0.49138451
-2.0261338 3.5045903 -0.43371099
-1.8791363 3.5483999 -0.37692833
-1.733592 3.5900488 -0.32073206
-1.5896494 3.6279554 -0.26520181
-1.4470226 3.6632042 -0.21021259
-1.3056209 3.6957016 -0.1557312
-1.165373 3.7251518 -0.1017347
-1.026076 3.7524562 -0.048132479
-0.88773191 3.7766249 0.0050603449
-0.75012231 3.7990537 0.057947457
-0.61326212 3.8183608 0.11050302
-0.47696069 3.8361173 0.16282278
-0.3412112 3.8507752 0.21488678
-0.20586123 3.8640037 0.26677752
-0.070868768 3.8743124 0.31848937
0.063870661 3.8831327 0.37008303
0.19843537 3.8891993 0.42157003
0.33289549 3.8936262 0.47299337
0.4673517 3.895535 0.52437872
0.60186088 3.8956177 0.57575786
0.73762661 3.8771987 0.6273489
0.87674057 3.8230431 0.67970133
1.0204883 3.7339077 0.7333169
1.172545 3.5876193 0.78927839
1.3353881 3.3815632 0.84849417
1.5017914 3.1880829 0.90925193
1.6558086 3.1146808 0.96701801
1.80156 3.1059456 1.0225637
1.9460545 3.1059456 1.0777556
2.0904913 3.1062648 1.1329302
2.2327635 3.1176751 1.1874386
2.3706262 3.1489828 1.240551
2.5035014 3.1993921 1.292035
2.6305351 3.2694495 1.3415723
2.7508733 3.3596129 1.3888434
2.8631866 3.4720714 1.4333723
2.9888117 3.5247617 1.48212
-2.6358962 3.5101149 -0.5068177
-2.506664 3.4654903 -0.45745546
-2.3747098 3.428283 -0.40705347
-2.2278485 3.4601305 -0.35095739
-2.0785842 3.5088973 -0.29394341
-1.9314257 3.5527315 -0.2377339
-1.7857351 3.5943773 -0.1820851
-1.6416695 3.6322534 -0.1270569
-1.4989338 3.6674476 -0.072536707
-1.3574359 3.6998901 -0.018489301
-1.217101 3.7293181 0.035113871
-1.0777305 3.7565718 0.088348657
-0.93932301 3.7807236 0.14121562
-0.80166048 3.8031065 0.19379801
-0.6647594 3.8223984 0.24608961
-0.52842236 3.840169 0.29816571
-0.39265263 3.8548446 0.35002512
-0.25729188 3.8680069 0.40172833
-0.12229983 3.878336 0.45329073
0.012431349 3.8871222 0.50475347
0.14697438 3.8932114 0.55614436
0.2814053 3.8976357 0.60749239
0.41581973 3.8995419 0.6588341
0.55027884 3.8996248 0.71019292
0.68589896 3.8813038 0.7619952
0.82469445 3.8272183 0.81501037
0.96793759 3.7383225 0.86972439
1.1191939 3.5924187 0.92749918
1.2809503 3.3866358 0.98928463
1.4464155 3.1926723 1.0524867
1.6000472 3.1190755 1.1111689
1.7457196 3.1102197 1.1668108
1.8901552 3.1102509 1.2219802
2.0345445 3.110538 1.277132
2.1768372 3.1218441 1.331483
2.3148546 3.1528769 1.3842009
2.4479508 3.2031572 1.4350392
2.5753083 3.2730758 1.4836854
2.6960566 3.3631506 1.5298071
2.8089538 3.4752686 1.5729301
2.934361 3.5295863 1.6208314
-2.6941359 3.4897103 -0.36904609
-2.5652142 3.4435678 -0.31913394
-2.4337204 3.4038224 -0.268332
-2.2866099 3.4346371 -0.21258718
-2.1363847 3.485477 -0.15594268
-1.9884369 3.5308588 -0.10008901
-1.8419827 3.5741959 -0.044776201
-1.6972655 3.6134357 0.0099324584
-1.5539258 3.6499949 0.06415385
-1.4118971 3.6836066 0.117917
-1.271082 3.7141521 0.17126116
-1.1312864 3.7423644 0.22424969
-0.99250019 3.7674012 0.27689868
-0.85449976 3.7905452 0.32927489
-0.71730161 3.8105001 0.3813909
-0.58069706 3.8288419 0.43330348
-0.44469014 3.8440518 0.48503321
-0.30911449 3.8577137 0.53662056
-0.17393637 3.8683686 0.58809972
-0.039035529 3.8774769 0.63949531
0.095657527 3.8837428 0.69085276
0.23022616 3.8883405 0.74218678
0.36476585 3.8903065 0.79354787
0.49933991 3.8904161 0.84494901
0.63504201 3.8711751 0.89706129
0.7738511 3.8150213 0.95089507
0.91710842 3.7226686 1.0069523
1.068504 3.5700567 1.0669909
1.230496 3.3555851 1.131973
1.396057 3.1563561 1.1980975
1.5497574 3.0830235 1.2578681
1.6957239 3.0749779 1.3137388
1.84061 3.0749769 1.3690804
1.9854078 3.0754912 1.4243808
2.127949 3.0881467 1.4786434
2.2661226 3.1213036 1.5309407
2.3993056 3.1742277 1.5810455
2.5266347 3.2474282 1.6286205
2.6472387 3.3413408 1.6733267
2.7599385 3.4575534 1.714691
2.8883882 3.502063 1.7631096
-2.7557638 3.4565334 -0.23160738
-2.6266966 3.4101744 -0.18096507
-2.4954164 3.3684523 -0.12961173
-2.3483942 3.3960385 -0.07425344
-2.197305 3.4475336 -0.01803422
-2.0486233 3.4931066 0.037436843
-1.9013996 3.5369191 0.092402071
-1.7559738 3.5764554 0.14680436
-1.6119274 3.6134362 0.20075381
-1.4692476 3.6472449 0.25427321
-1.3277826 3.6781387 0.30741301
-1.1873682 3.7065959 0.36022213
-1.0479813 3.7319131 0.41272977
-0.90940523 3.7552378 0.46498537
-0.77165061 3.7753811 0.51701939
-0.63450795 3.7938149 0.56886923
-0.49797726 3.8091803 0.62057424
-0.36189163 3.8229315 0.67215592
-0.22622083 3.833683 0.72366607
-0.090837173 3.8428226 0.77511322
0.044323862 3.8491302 0.8265574
0.17935216 3.8537579 0.87799954
0.31433865 3.8557086 0.92950332
0.44935226 3.855792 0.98107153
0.58544409 3.8356977 1.0336361
0.72449523 3.7785759 1.0884037
0.86788267 3.6847568 1.1458908
1.0193111 3.5289652 1.2082448
1.1810175 3.3122823 1.2762885
1.3490462 3.0883706 1.3469565
1.5036514 3.0119507 1.4082243
1.6502975 3.005168 1.4644347
1.7960658 3.0051689 1.5201132
1.9416556 3.0062404 1.5756925
2.0844352 3.0227733 1.6297505
2.2224197 3.0620344 1.6813184
2.3549201 3.1231809 1.7301577
2.4810817 3.2063248 1.7759384
2.6000166 3.3116982 1.8183148
2.7131443 3.4299998 1.8580985
2.848151 3.4510756 1.9090559
-2.8249004 3.3951297 -0.094848871
-2.6964569 3.3439112 -0.043562174
-2.5664592 3.2938244 0.0082691014
-2.4195323 3.3160045 0.063426405
-2.2655408 3.3755436 0.1196585
-2.1144781 3.4276497 0.17509517
-1.9650702 3.4778681 0.22998163
-1.817804 3.5228374 0.28427812
-1.6720827 3.5651498 0.33809999
-1.5279865 3.6035206 0.39147234
-1.3852553 3.6388123 0.44445726
-1.2438226 3.6705909 0.49709877
-1.1038296 3.6961899 0.54945898
-0.96467477 3.7196698 0.60159105
-0.82635659 3.740031 0.65353906
-0.68867052 3.7585859 0.70532417
-0.55161363 3.7740798 0.75700194
-0.4150131 3.7879505 0.80857599
-0.27884609 3.7987719 0.8601169
-0.1429766 3.8079154 0.91161704
-0.0073438054 3.8143198 0.96314585
0.12814626 3.8189499 1.0146973
0.26358318 3.8208566 1.0663466
0.39903831 3.8209414 1.1180823
0.53551269 3.8000388 1.1711192
0.67480063 3.7419093 1.2268485
0.81850994 3.6438844 1.2860004
0.97200638 3.4615085 1.352556
1.1370519 3.209239 1.4265603
1.3070292 2.9698946 1.5018866
1.4636095 2.8866796 1.5653111
1.6115175 2.8820047 1.6220101
1.7588432 2.8820047 1.6782836
1.9057215 2.8847573 1.7342665
2.0485859 2.9100296 1.7877376
2.1856174 2.9629653 1.8377787
2.316041 3.0421958 1.884153
2.4416304 3.1347156 1.9281033
2.5608499 3.2450941 1.9688447
2.6719074 3.3780074 2.0054889
-2.9004493 3.3112986 0.042538583
-2.7700062 3.2648914 0.095052183
-2.6425445 3.2007422 0.14745516
-2.4968317 3.2116508 0.20248049
-2.33846 3.2844651 0.25875413
-2.1856589 3.3382797 0.31400084
-2.0346246 3.389883 0.36870092
-1.8859065 3.4355688 0.42285913
-1.7386909 3.4790621 0.47657037
-1.5932245 3.5180957 0.529872
-1.4491148 3.5543518 0.58281636
-1.3063452 3.5870924 0.63545251
-1.1647567 3.6165526 0.68782759
-1.0241679 3.6433339 0.73997593
-0.88453627 3.6667256 0.79195511
-0.74565315 3.6878619 0.84377921
-0.60749596 3.7056518 0.89551973
-0.46987575 3.7214975 0.94716781
-0.33277118 3.7337363 0.99882799
-0.19601123 3.7441289 1.0504636
-0.05953569 3.7513762 1.1021726
0.076769106 3.7566571 1.1539304
0.21299905 3.7587564 1.205844
0.34923923 3.7588418 1.2578783
0.48658973 3.7335658 1.311806
0.62699306 3.6656008 1.3693732
0.77216989 3.5534689 1.4313229
0.92670965 3.3615341 1.5014726
1.0972234 3.0518658 1.5845454
1.2765011 2.7334666 1.6714716
1.4370159 2.6389942 1.7382566
1.5875416 2.6380274 1.7958084
1.7379508 2.6380265 1.8532597
1.8857858 2.6543567 1.9087814
2.0275583 2.7038643 1.9600652
2.1611855 2.7910504 2.0060546
2.2867007 2.9084458 2.047195
2.4101155 3.0216727 2.087775
2.5249374 3.1608448 2.1235695
2.6330678 3.3136058 2.1560204
-2.8595998 3.1251526 0.23422509
-2.7311962 3.0588515 0.28807276
-2.5902572 3.0405173 0.34323454
-2.4284291 3.1177385 0.39945459
-2.2696831 3.1893401 0.45490432
-2.1134193 3.2573786 0.50966424
-1.9604387 3.3165262 0.56381363
-1.8093321 3.3733535 0.61741549
-1.6606607 3.4235492 0.67056739
-1.5139759 3.4685421 0.72333741
-1.3699101 3.5017066 0.77596366
-1.2270148 3.5319233 0.82835633
-1.0851827 3.5591507 0.8805595
-0.94432163 3.5831385 0.93262619
-0.80425572 3.6046004 0.98457229
-0.66493607 3.6227798 1.0364709
-0.52618682 3.638725 1.0883137
-0.3879672 3.6512103 1.1402047
-0.25010633 3.6619344 1.1920861
-0.11255566 3.6692641 1.2440948
0.024812721 3.6745105 1.296185
0.1620923 3.676497 1.3484772
0.29937255 3.676584 1.4009073
0.43773234 3.6489816 1.4557551
0.57902467 3.578156 1.5148537
0.72514051 3.4601898 1.5792087
0.88553178 3.1955304 1.6596409
1.0711313 2.7242746 1.7646648
2.2777286 2.6611443 2.2301164
2.3880618 2.8567426 2.2580934
2.4943261 3.0482898 2.2848096
2.6062386 3.19396 2.3170061
-2.9681616 2.9167268 0.37617064
-2.8450882 2.8190784 0.43166715
-2.7280495 2.6846526 0.48805505
-2.5460279 2.8319721 0.54477739
-2.3733447 2.9520299 0.60030216
-2.2059448 3.0604594 0.65481961
-2.0445964 3.1505661 0.70861799
-1.8906443 3.2102101 0.76223868
-1.7394729 3.2616639 0.81550914
-1.5899498 3.3106821 0.86836159
-1.4424357 3.3537831 0.92096102
-1.2964276 3.3933408 0.97329319
-1.1519036 3.428282 1.0254596
-1.0086005 3.4595609 1.0774781
-0.86636728 3.4873264 1.1293933
-0.7251277 3.5107384 1.1813073
-0.58464366 3.5311241 1.2331955
-0.4448463 3.5473971 1.2851791
-0.30553293 3.5611801 1.3371942
-0.1666441 3.570291 1.3894532
-0.027994044 3.5770414 1.4418261
0.11052494 3.5793579 1.4945344
0.24903372 3.5794163 1.5474349
0.38885966 3.5409646 1.6041856
0.53230822 3.4459717 1.6672341
0.68216467 3.2836607 1.7385807
0.85253203 2.8939655 1.8375239
2.3885589 2.5702286 2.4523702
2.4760935 2.871979 2.4595804
2.608197 2.9405489 2.5040798
-2.1681795 2.7806993 0.86384636
-1.9962549 2.9156058 0.91583663
-1.8389467 2.9805684 0.96933615
-1.6833827 3.0448403 1.0222394
-1.5295436 3.1083698 1.074559
-1.3776009 3.169529 1.1263949
-1.227659 3.2265389 1.1778868
-1.0801659 3.2731686 1.2294961
-0.93471867 3.3095133 1.2813667
-0.79024005 3.3451653 1.3329377
-0.64700139 3.3750882 1.384616
-0.50513768 3.3917027 1.4371184
-0.3637802 3.4057589 1.489687
-0.22287863 3.4150391 1.5425656
-0.082231261 3.4221022 1.5955719
0.058258526 3.4242439 1.6490172
0.19872805 3.424334 1.7026626
0.34052807 3.379102 1.7614117
0.48588976 3.2763588 1.8273526
0.64314258 3.0036752 1.9150671
-1.1868647 2.759434 1.411427
-1.0218272 2.9406474 1.4534664
-0.87027657 3.0055256 1.5038354
-0.72073859 3.0645747 1.5541112
-0.57276231 3.1222894 1.603945
-0.42618909 3.1814427 1.6530763
-0.28226382 3.1962526 1.7063346
-0.13875896 3.2076409 1.7598289
0.0044522816 3.2103357 1.8142185
0.14762703 3.2103987 1.8688991
0.29289305 3.1252792 1.9342495
0.4438636 2.9447174 2.0128388
-0.20253238 2.7084098 1.9646559
-0.052805878 2.7458026 2.0169716
0.096305065 2.7368343 2.0750961
0 0 0 1 0 0 0 1 0 0 0 1 0 0 0 0 0 605 1 0 0
