ply
format ascii 1.0
comment PCL generated
element vertex 603
property float x
property float y
property float z
element camera 1
property float view_px
property float view_py
property float view_pz
property float x_axisx
property float x_axisy
property float x_axisz
property float y_axisx
property float y_axisy
property float y_axisz
property float z_axisx
property float z_axisy
property float z_axisz
property float focal
property float scalex
property float scaley
property float centerx
property float centery
property int viewportx
property int viewporty
property float k1
property float k2
end_header
-0.71471941 2.6014078 -0.95584154
-0.56092268 2.6619716 -1.0058141
-0.40946877 2.69976 -1.0581905
-0.2591778 2.7285321 -1.1114287
-0.10985748 2.7338071 -1.1676999
0.039361134 2.7250922 -1.2259588
-1.7017385 2.6806729 -0.39561585
-1.5283688 2.8587747 -0.43861869
-1.3683549 2.9626706 -0.48619393
-1.2163399 3.0161977 -0.53728032
-1.0664765 3.0612311 -0.58865201
-0.91821712 3.1005516 -0.64015627
-0.77135384 3.1340168 -0.69189012
-0.62573206 3.1604342 -0.74406886
-0.48098737 3.1820409 -0.79653966
-0.33701003 3.1964724 -0.84965265
-0.19346158 3.2073593 -0.90306401
-0.050231233 3.2104611 -0.95736885
0.092937306 3.2111192 -1.0119686
0.23778422 3.1259789 -1.0783945
0.38787496 2.945374 -1.159269
-2.2275751 2.7668464 -0.013041824
-2.0504546 2.9263463 -0.062212676
-1.8898398 3.0102642 -0.11383751
-1.7320716 3.0894265 -0.16492632
-1.5778996 3.1571779 -0.21596351
-1.4259986 3.2205384 -0.26664236
-1.2769631 3.2728591 -0.31750587
-1.1312562 3.3054802 -0.36938098
-0.98674917 3.333899 -0.42128441
-0.8432613 3.358392 -0.47325358
-0.70061857 3.3793452 -0.52531016
-0.55872887 3.3959479 -0.57758331
-0.41736782 3.4097207 -0.62998223
-0.27647275 3.4189644 -0.68272841
-0.13584216 3.4259613 -0.73563361
0.0046094507 3.4282527 -0.78901577
0.14502425 3.428704 -0.84259725
0.28654528 3.3836899 -0.90186965
0.43133247 3.281496 -0.96901584
0.58743268 3.0042272 -1.0607712
-3.0240402 2.9175844 0.47695312
-2.901212 2.8208888 0.42023233
-2.7872334 2.6763465 0.36204031
-2.6020684 2.83408 0.30730715
-2.4291041 2.9528499 0.25328347
-2.2612195 3.0611348 0.20013693
-2.0986779 3.1553755 0.14760736
-1.9445338 3.2148137 0.094756395
-1.7932086 3.2660389 0.042149335
-1.6435277 3.3148971 -0.010069698
-1.4958555 3.358026 -0.062102348
-1.3497022 3.3976452 -0.11391082
-1.2050731 3.4324989 -0.16562
-1.0616865 3.463634 -0.21723178
-0.91939002 3.4911711 -0.2687923
-0.77807671 3.5147142 -0.32038185
-0.63753158 3.5353227 -0.37197569
-0.49771756 3.5514059 -0.42374918
-0.35839832 3.5648856 -0.47559759
-0.21951123 3.5740201 -0.52772152
-0.08087711 3.5806484 -0.58000302
0.057606235 3.5831687 -0.63264334
0.1960624 3.5835493 -0.68549037
0.33564568 3.5452433 -0.74269032
0.47855806 3.4508054 -0.80685377
0.62754726 3.2889152 -0.88017774
0.79620451 2.8956871 -0.98447084
2.3315146 2.5664515 -1.6042905
2.41961 2.8727763 -1.6068797
2.5513613 2.9444222 -1.6499395
-2.9136684 3.1291575 0.62148762
-2.7855852 3.0630641 0.56681979
-2.644613 3.0454853 0.51144552
-2.4823987 3.1230526 0.45622674
-2.3234918 3.1940858 0.40170315
-2.1669643 3.2620983 0.34782603
-2.0137942 3.321044 0.29444322
-1.8625139 3.3776121 0.24157581
-1.7137021 3.4274991 0.18907043
-1.5666069 3.4741931 0.13694325
-1.4223258 3.5083327 0.084800035
-1.2793728 3.5385137 0.032819748
-1.1375113 3.5655611 -0.019015819
-0.99662322 3.5894628 -0.070752949
-0.85653335 3.61093 -0.12239686
-0.71720904 3.6290598 -0.17403826
-0.57845503 3.6451311 -0.22564092
-0.44025254 3.6577165 -0.27733561
-0.30242759 3.6682546 -0.32906428
-0.16492277 3.6754899 -0.38095757
-0.027608529 3.6807008 -0.43295404
0.10960235 3.6827726 -0.48518398
0.24680124 3.6829739 -0.53757179
0.3849439 3.6554623 -0.59272861
0.52579528 3.5849843 -0.65265441
0.67136782 3.4651308 -0.71867466
0.83036351 3.2012439 -0.80234027
1.0154797 2.7080002 -0.91591668
2.2215385 2.6549776 -1.3811984
2.3314979 2.8576083 -1.4055884
2.438185 3.0514789 -1.4294897
2.5504692 3.1984506 -1.4596051
-2.9528584 3.318063 0.81537843
-2.8235061 3.2685506 0.76238441
-2.6963313 3.2046943 0.70918298
-2.5504889 3.2161598 0.65430641
-2.3912942 3.2914476 0.59895241
-2.2383354 3.3451953 0.54441988
-2.0871508 3.3967359 0.49040541
-1.9383191 3.4423065 0.43685731
-1.7909968 3.4856863 0.3837271
-1.6454371 3.5246441 0.33094981
-1.5012534 3.5607686 0.27849281
-1.3584043 3.5935292 0.22630203
-1.2167653 3.6228967 0.17432776
-1.0761362 3.6495895 0.12254545
-0.93647045 3.6729832 0.070892096
-0.79755813 3.6942093 0.019369632
-0.65939844 3.7119489 -0.032117814
-0.52178723 3.727664 -0.083542436
-0.38469702 3.7400312 -0.13501057
-0.24796505 3.7504954 -0.1864796
-0.11153749 3.7575076 -0.23808238
0.024715379 3.7627544 -0.28974643
0.16087733 3.7649076 -0.34159967
0.29704022 3.7649932 -0.39360318
0.43418682 3.7398314 -0.4478108
0.57417542 3.6720033 -0.50619411
0.71870631 3.5602393 -0.56949472
0.87215012 3.3693962 -0.641927
1.0412285 3.0579505 -0.7290659
1.2192672 2.735882 -0.82039678
1.3805699 2.6303124 -0.88965487
1.5312101 2.6292737 -0.94726944
1.6817254 2.6293082 -1.0047587
1.8288859 2.6512876 -1.0593772
1.9701732 2.7054029 -1.1094248
2.1043324 2.7918591 -1.1544075
2.2299726 2.9115157 -1.1937313
2.3537233 3.0255888 -1.2327383
2.4692967 3.1641626 -1.266847
2.5776441 3.3190155 -1.2970166
-2.8770964 3.4012797 0.95376527
-2.7490628 3.3497205 0.90187335
-2.6192887 3.3000255 0.8494246
-2.4721682 3.3229477 0.79455769
-2.3179989 3.3823841 0.73911417
-2.1667833 3.4344261 0.68437028
-2.0172355 3.4845529 0.63015246
-1.8698509 3.5294385 0.57645726
-1.7240216 3.571671 0.52320242
-1.5798247 3.6100264 0.47034642
-1.4370188 3.6452174 0.41783845
-1.2954658 3.6773906 0.36563408
-1.1552902 3.7043335 0.3136529
-1.0161316 3.7277489 0.26185581
-0.87781733 3.7481089 0.21020404
-0.74013937 3.7667205 0.15869412
-0.60311359 3.7821631 0.10724968
-0.46655059 3.7959845 0.055887997
-0.3304323 3.8068187 0.0045232773
-0.19461942 3.8160315 -0.046818823
-0.059058562 3.8223424 -0.098232836
0.076353133 3.82691 -0.1496909
0.21169813 3.8288422 -0.20127609
0.3470524 3.8289263 -0.25297192
0.4833141 3.8082809 -0.30621555
0.62221628 3.7501543 -0.36263928
0.76548809 3.6501105 -0.42316088
0.91791475 3.4690812 -0.49187163
1.0816082 3.2172229 -0.56898975
1.250568 2.9756422 -0.64752412
1.4067829 2.891516 -0.71206713
1.554585 2.8870113 -0.76878357
1.7018471 2.8870108 -0.82503271
1.8487124 2.8895292 -0.88098431
1.9917101 2.9143863 -0.9341644
2.1289427 2.9673135 -0.98351598
2.2597752 3.0461307 -1.0289228
2.3854179 3.1402993 -1.0714579
2.5051444 3.250478 -1.1108055
2.6169403 3.3826878 -1.1458473
-2.8073597 3.4639945 1.0911517
-2.6785886 3.4177265 1.039955
-2.5475295 3.3763351 0.98809612
-2.4003048 3.4047 0.93309391
-2.2490931 3.4561143 0.87757039
-2.100296 3.5017068 0.82271624
-1.9530029 3.5453324 0.76835108
-1.8075073 3.5847797 0.71449083
-1.6633919 3.6217327 0.6610496
-1.520661 3.6554904 0.60799819
-1.3791567 3.6863377 0.55528879
-1.2387139 3.7147524 0.5028792
-1.0993179 3.7399735 0.45073065
-0.96073371 3.7632642 0.3988083
-0.8229813 3.7834339 0.34706801
-0.68584794 3.8019247 0.29549122
-0.54934835 3.8172388 0.24401847
-0.41330022 3.8309414 0.19264823
-0.27767867 3.8416781 0.14131194
-0.14235164 3.850831 0.090019375
-0.0072613209 3.8571012 0.038691908
0.1276882 3.8616939 -0.012654632
0.26258379 3.8636413 -0.064095527
0.39749801 3.8637257 -0.11562458
0.5333789 3.8439116 -0.16838744
0.67204446 3.7868779 -0.22383139
0.8148638 3.6932049 -0.28245416
0.96535027 3.5383663 -0.3466635
1.1260529 3.32006 -0.41753295
1.2929099 3.0960774 -0.49099997
1.4471567 3.0187898 -0.55327559
1.5937052 3.011853 -0.60955358
1.7393891 3.0118535 -0.66519976
1.8848894 3.0129886 -0.72072673
2.0276887 3.0293736 -0.77455926
2.1658661 3.068172 -0.82565236
2.2986164 3.1291578 -0.87370825
2.4252026 3.2118392 -0.91846681
2.5446277 3.316988 -0.9595139
2.6580992 3.4359605 -0.99768615
2.7912891 3.4643834 -1.0473251
-2.7456267 3.4970951 1.2289206
-2.6169705 3.4511659 1.1784477
-2.4856777 3.4118063 1.127158
-2.3383567 3.4433882 1.0718013
-2.1880128 3.4941487 1.0158457
-2.0399859 3.5393705 0.96061444
-1.8934667 3.5824943 0.90589845
-1.7486699 3.6217036 0.85172689
-1.6052661 3.6582072 0.7980091
-1.4631861 3.6917684 0.74471164
-1.3223357 3.72224 0.69179428
-1.1825076 3.7504387 0.63920164
-1.0437063 3.7754378 0.58690846
-0.90569413 3.7986033 0.53486359
-0.76850104 3.8185577 0.4830386
-0.6319117 3.8368714 0.43139666
-0.49593383 3.8520579 0.37989771
-0.36039543 3.8656719 0.32852101
-0.22526626 3.8763385 0.2772153
-0.090422601 3.8853774 0.22597146
0.044200666 3.8916621 0.17473203
0.1786911 3.8962536 0.12349427
0.3131398 3.8982434 0.07219708
0.44761604 3.8983269 0.020834088
0.58311236 3.8793073 -0.031471878
0.72153109 3.8234086 -0.085962564
0.86421853 3.731286 -0.14313313
1.0146946 3.5794749 -0.20500782
1.1755123 3.3651924 -0.27264264
1.3400238 3.1656775 -0.3412604
1.4933692 3.0914426 -0.40198377
1.6392201 3.0831833 -0.4579331
1.7840028 3.0831838 -0.51323509
1.9287041 3.0836637 -0.56849217
2.0712237 3.0962057 -0.62256646
2.2095377 3.1289349 -0.67444968
2.342927 3.1816313 -0.72387314
2.4706111 3.2543945 -0.77053618
2.5916426 3.3480392 -0.81405318
2.7049613 3.4636652 -0.85398734
2.8324375 3.5125196 -0.90126359
-2.6869748 3.5189254 1.366744
-2.5580254 3.4744921 1.3168461
-2.4262588 3.4377658 1.2659838
-2.2791829 3.4704864 1.2102798
-2.1298201 3.5192223 1.1539341
-1.9826163 3.5628569 1.0983394
-1.8368707 3.6043966 1.0432713
-1.6927545 3.6422331 0.9887718
-1.5499806 3.6773911 0.93474638
-1.4084518 3.7098322 0.88115704
-1.2681077 3.7392049 0.82797587
-1.1287291 3.7664661 0.77513289
-0.99033469 3.7905729 0.72262007
-0.8526873 3.8129716 0.6703679
-0.71582365 3.8321729 0.61836874
-0.57952791 3.8498831 0.56656492
-0.44380987 3.8645597 0.51493788
-0.30850744 3.8777535 0.46344805
-0.17358954 3.8880363 0.41206291
-0.038938854 3.8967786 0.36075759
0.095511451 3.9028842 0.30949056
0.22984166 3.9073009 0.25824496
0.36414301 3.9092319 0.20697436
0.49847811 3.9093413 0.15566453
0.63387984 3.8911366 0.10368198
0.77226931 3.837347 0.050042719
0.91491723 3.7489049 -0.0057250559
1.065276 3.6036091 -0.065261632
1.2258779 3.3980088 -0.12958422
1.3902985 3.2037539 -0.19520113
1.5435817 3.1290619 -0.25483194
1.6891294 3.1199031 -0.31055894
1.8334478 3.1199026 -0.36568365
1.9777278 3.1201255 -0.42079046
2.1199982 3.1311908 -0.47497275
2.2580945 3.1619828 -0.52727473
2.3914144 3.2118077 -0.57747674
2.5190783 3.2813716 -0.62523234
2.6402307 3.3711319 -0.67020833
2.753653 3.482913 -0.71191263
2.8783524 3.5405812 -0.75870812
-2.6346881 3.51513 1.5063665
-2.5055037 3.4705758 1.4570224
-2.3735549 3.4336433 1.4066224
-2.2266521 3.4660292 1.3505106
-2.0774608 3.5148044 1.2935245
-1.9303955 3.558533 1.2373506
-1.7847856 3.6001339 1.1817327
-1.640794 3.6379998 1.1267327
-1.4981287 3.6732135 1.0722394
-1.3567042 3.7056513 1.0182201
-1.2164457 3.7350483 0.9646461
-1.0771416 3.7623575 0.91143668
-0.93880993 3.786483 0.85859859
-0.80122012 3.8088703 0.80604398
-0.6644904 3.826602 0.75381786
-0.52813262 3.8458371 0.70173383
-0.39243364 3.8605254 0.64990145
-0.25714368 3.8737302 0.59822524
-0.12222441 3.8840194 0.5466907
0.012434517 3.8927963 0.49525556
0.14690608 3.8988791 0.44389197
0.28126556 3.9032989 0.39257121
0.41560799 3.9052305 0.34125698
0.54999316 3.9053416 0.28992641
0.68553948 3.8870392 0.23815233
0.82424992 3.8331244 0.18516964
0.96739471 3.7444987 0.13049316
1.1185495 3.598819 0.072757214
1.2802184 3.3930984 0.011005193
1.4456409 3.1988277 -0.052180558
1.5992851 3.1245797 -0.11086747
1.7449062 3.1156049 -0.16648975
1.8892787 3.1156049 -0.22163513
2.0336061 3.11586 -0.27676329
2.1758521 3.1270607 -0.3310965
2.313834 3.1579373 -0.38380089
2.4469099 3.2080169 -0.43463138
2.5742478 3.2777514 -0.48327014
2.6949837 3.3676293 -0.52938712
2.8078396 3.4796886 -0.57249427
2.9327161 3.5357952 -0.62019289
-2.5842881 3.5031633 1.6469378
-2.4551992 3.4565344 1.5983057
-2.3234537 3.4169414 1.5485569
-2.1764708 3.4494548 1.4919435
-2.0267949 3.5009928 1.4340258
-1.8793617 3.5470722 1.377044
-1.7334485 3.5909257 1.3206748
-1.5892282 3.6308019 1.2650099
-1.4463948 3.6678512 1.2099158
-1.3049164 3.7014675 1.1553888
-1.1651487 3.7271779 1.10163
-1.0265707 3.7472849 1.0484066
-0.88850743 3.7673154 0.99538088
-0.75095582 3.7872729 0.94255173
-0.61394048 3.8066788 0.88993549
-0.47739404 3.8265734 0.83749127
-0.34136009 3.8461728 0.78524697
-0.20582396 3.8656719 0.73319435
-0.070820495 3.8800006 0.68142003
0.063846968 3.8888116 0.62985402
0.1983393 3.894871 0.57839471
0.33272833 3.8992944 0.52699864
0.46711165 3.901228 0.47564074
0.60154873 3.9013104 0.42428911
0.73723751 3.8829668 0.37272632
0.87627399 3.8288703 0.32040271
1.0199176 3.7400596 0.26682216
1.1724558 3.5884979 0.21075323
1.3367015 3.370523 0.15117428
1.504598 3.1667197 0.089995652
1.6591784 3.0912824 0.032043964
1.8051815 3.0828316 -0.02360186
1.9499682 3.0828314 -0.078905493
2.0946674 3.0833113 -0.13418266
2.2369657 3.0960784 -0.18872073
2.3746896 3.1293797 -0.24180892
2.507144 3.1828277 -0.2931762
2.6335459 3.2565084 -0.34252468
2.752919 3.3512788 -0.38949391
2.8641379 3.4683926 -0.43367222
2.9897673 3.5212369 -0.48242381
-2.5405815 3.4616582 1.7912683
-2.4108198 3.4146769 1.7430648
-2.2788773 3.3725324 1.6938881
-2.1322744 3.4009767 1.6370668
-1.9820992 3.4532654 1.5781902
-1.8342184 3.4997439 1.5203582
-1.6878103 3.5442991 1.4631445
-1.5431445 3.5845156 1.4067221
-1.3998382 3.6220822 1.3508955
-1.2591637 3.6452465 1.2964916
-1.1191632 3.6675625 1.2423697
-0.97973484 3.6897869 1.1884689
-0.84086865 3.7120066 1.134783
-0.70261586 3.7334511 1.0813538
-0.56493229 3.7543862 1.0281569
-0.42778015 3.7752683 0.97516453
-0.29115927 3.7960403 0.92237818
-0.15506548 3.8166771 0.86979711
-0.019492991 3.8373473 0.81741428
0.11558417 3.8551512 0.76530361
0.25046504 3.8615551 0.71359813
0.38524604 3.8662004 0.66198182
0.52003509 3.8682017 0.61043894
0.65488923 3.8682852 0.55892682
0.79120433 3.8482928 0.5074383
0.931279 3.7902346 0.45561644
1.0764719 3.6949844 0.40291715
1.2310485 3.5367708 0.34845775
1.3973488 3.315973 0.29133323
1.568122 3.1033289 0.23226401
1.7246914 3.0223529 0.17480576
1.8714087 3.0151289 0.11897397
2.0170512 3.0151281 0.063343465
2.162488 3.0162308 0.0077595413
2.3047764 3.0329933 -0.047075421
2.4416978 3.0730844 -0.10053602
2.5725336 3.1357632 -0.15232685
2.6973443 3.2171607 -0.20235839
2.8160763 3.3146505 -0.25053433
2.9266455 3.4338541 -0.29622135
3.0597906 3.4600401 -0.34783676
-2.4988494 3.4096303 1.9380126
-2.3696234 3.3559809 1.8909841
-2.2385464 3.3048019 1.843141
-2.0919712 3.3292692 1.7860911
-1.9395193 3.3908236 1.7251847
-1.7898308 3.4449501 1.6656568
-1.6418078 3.4970958 1.606851
-1.4967736 3.537066 1.5497159
-1.354893 3.5598273 1.4945332
-1.2135991 3.5824943 1.4395787
-1.0728844 3.6050963 1.3848484
-0.9327516 3.6275773 1.3303454
-0.793194 3.6499658 1.2760662
-0.65420616 3.6722913 1.2220075
-0.51578468 3.6945822 1.1681665
-0.377931 3.7167537 1.1145475
-0.2406529 3.738266 1.0611771
-0.10392539 3.7591825 1.0080431
0.03227295 3.7800732 0.95511198
0.16793407 3.8016157 0.90235794
0.30319345 3.8178837 0.84998655
0.43850166 3.8225951 0.79809856
0.57383424 3.8245564 0.74632096
0.70923972 3.824641 0.69459701
0.84628516 3.8035851 0.64316523
0.98732942 3.7441573 0.59187365
1.1337683 3.6469264 0.54016417
1.2904763 3.4821358 0.48746806
1.4639273 3.2192881 0.43263793
1.6394845 2.9886496 0.37560353
1.799476 2.8973746 0.31845865
1.9474155 2.8925097 0.26216218
2.0946078 2.892509 0.20593962
2.2412684 2.8952901 0.14979938
2.3831155 2.9213076 0.094488055
2.517885 2.9769478 0.040592819
2.6473355 3.049643 -0.012011796
2.7707777 3.13957 -0.063070565
2.8859541 3.2530274 -0.1119943
2.9923482 3.3886085 -0.1585249
-2.4660873 3.314713 2.0921755
-2.3340762 3.2674346 2.0444911
-2.2022026 3.2133417 1.9972539
-2.057091 3.2241337 1.941201
-1.903421 3.2867825 1.8788743
-1.7523792 3.3428094 1.8179352
-1.6031243 3.3962817 1.7578268
-1.4586221 3.4240627 1.7010221
-1.3148385 3.4517059 1.6445
-1.1718425 3.478524 1.5883266
-1.0295732 3.5048277 1.5324605
-0.88797897 3.5310061 1.4768595
-0.74705535 3.5570605 1.4215218
-0.60678053 3.5832851 1.3664221
-0.46714985 3.6099391 1.3115437
-0.32821155 3.6359987 1.256964
-0.18994395 3.6614432 1.2026762
-0.052320004 3.686769 1.1486411
0.084663406 3.7120924 1.0948508
0.22101428 3.7370412 1.0413239
0.35674065 3.7617908 0.98804706
0.49228287 3.7766247 0.93541497
0.62817174 3.7788579 0.88338065
0.76415479 3.7789431 0.83143479
0.90224808 3.7534213 0.78016669
1.0452675 3.6829166 0.7296232
1.1949641 3.5670016 0.67916036
1.357684 3.3672948 0.62857807
1.5387335 3.0677869 0.57677698
1.7306262 2.7458367 0.52213442
1.8958758 2.6435211 0.46494302
2.0463521 2.6427271 0.40751216
2.196702 2.6427269 0.35008356
2.3447487 2.6544595 0.29285493
2.4834507 2.7095032 0.23668626
2.6118319 2.804846 0.1821247
2.7353742 2.9105577 0.12881073
2.8529296 3.0296972 0.077005535
2.9605892 3.1753621 0.02744326
3.065825 3.3164034 -0.020925075
-2.3072524 3.1317942 2.2073061
-2.1765258 3.0613279 2.1624765
-2.0348349 3.0424209 2.1097248
-1.8758265 3.1252789 2.0429878
-1.7198174 3.2022166 1.9778256
-1.5702189 3.2473044 1.9174185
-1.4226097 3.2857323 1.8582536
-1.2761394 3.3227024 1.7996294
-1.1306884 3.35885 1.741454
-0.98687571 3.3869095 1.6844901
-0.84383911 3.4141026 1.6278855
-0.70147312 3.441555 1.5715183
-0.55980724 3.4689016 1.5154262
-0.41883844 3.4960837 1.4596121
-0.27856022 3.5231624 1.4040694
-0.13896815 3.5501094 1.3487984
-5.8218837e-05 3.5762792 1.2938441
0.13819405 3.6020908 1.239167
0.27578133 3.6284199 1.1847064
0.41273695 3.6538424 1.1305528
0.5491063 3.6781104 1.0767066
0.6859445 3.6849294 1.0239452
0.8231141 3.6850162 0.97154486
0.96276933 3.6566181 0.92025805
1.1076473 3.583168 0.87023926
1.2598827 3.4608793 0.82094741
1.4312053 3.2108994 0.77361298
1.6422077 2.7190251 0.72864175
2.8466661 2.6798141 0.27141926
2.9495306 2.8666277 0.21859846
3.0485742 3.0500298 0.16748407
3.1507666 3.2053218 0.11720297
-2.2930195 2.9261489 2.3849442
-2.1662338 2.818676 2.3458569
-2.0339992 2.7269661 2.3033185
-1.8728565 2.8007782 2.2353523
-1.7080415 2.9120104 2.1627314
-1.5510169 2.9864674 2.096282
-1.3961997 3.0582721 2.0309067
-1.2461426 3.1033289 1.969674
-1.0975986 3.1445475 1.9093528
-0.95031917 3.1831424 1.8497428
-0.80407953 3.2208512 1.790607
-0.65879297 3.2585585 1.7318352
-0.51441818 3.2971568 1.6733344
-0.37102801 3.3354924 1.6152323
-0.22861622 3.373415 1.5575401
-0.087183401 3.4090252 1.5004226
0.053349182 3.4444089 1.4436685
0.19298822 3.4797482 1.3872598
0.33175153 3.514477 1.3312385
0.46987695 3.5434442 1.2759619
0.60742587 3.5695279 1.2211559
0.7447353 3.5893469 1.1669859
0.88311189 3.5894339 1.1141231
1.0243874 3.5580618 1.0628873
1.1726184 3.4678845 1.0141054
1.3329933 3.2937315 0.9679836
1.5253422 2.9076536 0.92806721
3.0818615 2.5704045 0.36284038
3.1508498 2.8760974 0.30992106
3.2709529 2.9729655 0.25562689
-1.2469404 2.571243 2.1895444
-1.0847807 2.6890068 2.115664
-0.92620361 2.7991972 2.04392
-0.77281004 2.8737733 1.9777672
-0.62137526 2.9470139 1.912498
-0.47181147 3.0197935 1.84799
-0.32411444 3.0916657 1.7842872
-0.17827292 3.1612239 1.7215277
-0.034300193 3.2040982 1.6621878
0.10862185 3.2430694 1.6036448
0.25060225 3.2799795 1.5456706
0.39162457 3.3176324 1.487987
0.53170675 3.3550353 1.4306879
0.6709559 3.3905203 1.3739014
0.8093223 3.4258118 1.3174717
0.9491533 3.4331615 1.2633158
1.09419 3.3849359 1.2128068
1.2472292 3.2748415 1.165514
1.4210547 3.0175264 1.1252093
-0.13008498 2.5968137 1.9333017
0.020759746 2.7191954 1.8615024
0.16854279 2.8391273 1.7911564
0.31441325 2.9159689 1.7265345
0.45852977 2.9879334 1.6631474
0.60087049 3.0590441 1.6005375
0.74161333 3.1270282 1.5389006
0.88071305 3.1940234 1.4780059
1.0201923 3.2377729 1.4196596
1.1725559 3.144136 1.3723127
1.3404406 2.9355886 1.3323531
0.98218542 2.6200926 1.6783687
1.1252319 2.7008214 1.6132054
0 0 0 1 0 0 0 1 0 0 0 1 0 0 0 0 0 603 1 0 0
