ply
format ascii 1.0
comment PCL generated
element vertex 592
property float x
property float y
property float z
element camera 1
property float view_px
property float view_py
property float view_pz
property float x_axisx
property float x_axisy
property float x_axisz
property float y_axisx
property float y_axisy
property float y_axisz
property float z_axisx
property float z_axisy
property float z_axisz
property float focal
property float scalex
property float scaley
property float centerx
property float centery
property int viewportx
property int viewporty
property float k1
property float k2
end_header
1.9281569 -3.4915872 -0.7561909
2.0335426 -3.47772 -0.61704838
2.1120396 -3.4718473 -0.46945676
2.1640129 -3.4739823 -0.31233275
2.2025185 -3.4802577 -0.1496354
2.1855993 -3.503634 0.036615282
1.6510658 -3.370064 -1.0182905
1.7852813 -3.349035 -0.88467622
1.8888893 -3.3365231 -0.74299061
1.9801731 -3.3274174 -0.59830058
2.0539036 -3.3232768 -0.44814742
2.1078606 -3.3248222 -0.29088411
2.1529131 -3.3289769 -0.12991437
2.1702385 -3.3412907 0.042963833
2.1811028 -3.3556359 0.21995488
2.1527796 -3.3817248 0.41596356
1.3963729 -3.2534986 -1.1189406
1.5660267 -3.2243752 -0.99223524
1.7107592 -3.2016771 -0.86074024
1.8275871 -3.1863103 -0.72238362
1.928978 -3.1749918 -0.58031762
2.0045977 -3.1706128 -0.43007475
2.0581722 -3.1722562 -0.27190503
2.0977783 -3.1777804 -0.10799608
2.1083775 -3.1914289 0.068531305
2.1007853 -3.2103069 0.2544283
2.0803289 -3.2329988 0.44822577
2.0246201 -3.2658913 0.66091907
1.0410053 -3.1563075 -1.1973304
1.2835941 -3.1107817 -1.0860404
1.485364 -3.0751724 -0.96752095
1.6505194 -3.0485561 -0.84139085
1.7875319 -3.0288939 -0.70891845
1.8987789 -3.0156801 -0.56970984
1.9762478 -3.0110919 -0.41968352
2.0293455 -3.0128107 -0.26089391
2.0618191 -3.019953 -0.093700051
2.0673246 -3.0342748 0.08549872
2.0387211 -3.05778 0.28106728
1.9821796 -3.0889716 0.49193177
1.9008589 -3.1271269 0.71804166
0.82627404 -3.0319874 -1.1378036
1.1487093 -2.9701767 -1.0466897
1.4102983 -2.9223483 -0.94452202
1.6129065 -2.8882661 -0.82930976
1.769845 -2.8649106 -0.70297289
1.8906469 -2.8501239 -0.56685364
1.9703579 -2.8452518 -0.4175249
2.0226059 -2.8470919 -0.25831947
2.0479183 -2.8556185 -0.088173509
2.0427475 -2.8718188 0.095656306
1.9981241 -2.8980575 0.29849187
1.9035397 -2.9371359 0.52695024
1.7552624 -2.990201 0.78524148
1.5495168 -3.0584369 1.0778992
0.46135139 -2.935257 -1.0366421
0.98532689 -2.8321867 -0.99902689
1.3587581 -2.7620895 -0.92873031
1.6005611 -2.7211709 -0.82534462
1.7768478 -2.6947882 -0.70532662
1.9041815 -2.6793647 -0.57160771
1.9886045 -2.6736767 -0.42421299
2.0400858 -2.6755645 -0.26499614
2.0580511 -2.6852801 -0.092201799
2.0386648 -2.7038441 0.097343832
1.9667093 -2.7349787 0.31197634
1.8136644 -2.7856324 0.56697166
1.5376511 -2.8660786 0.88568056
0.58049583 -2.7404897 -0.88092554
1.3031301 -2.6012409 -0.91168624
1.6176025 -2.5474699 -0.83081824
1.8118763 -2.5188689 -0.71710193
1.946806 -2.5027375 -0.58657992
2.0340929 -2.4967387 -0.44088611
2.0847807 -2.49863 -0.28206882
2.097744 -2.5087805 -0.10798225
2.0643806 -2.5292079 0.086715609
1.9622641 -2.5650234 0.31388369
1.7318517 -2.6296813 0.6034025
1.2827655 -2.4318504 -0.90544713
1.6698189 -2.3672636 -0.84759009
1.8751774 -2.3383031 -0.73838121
2.0106459 -2.3230743 -0.60900557
2.0977154 -2.3174534 -0.46420631
2.1480017 -2.3192339 -0.30621633
2.1603584 -2.3287642 -0.13287506
2.1231775 -2.3485456 0.062414557
1.9990149 -2.386451 0.29810992
1.3318874 -2.2491295 -0.9204973
1.7404728 -2.1851377 -0.8702839
1.9409418 -2.159086 -0.76048899
2.07516 -2.1451156 -0.63166773
2.1612511 -2.1400177 -0.48749453
2.2112732 -2.1416593 -0.33038431
2.2242279 -2.1503341 -0.15826616
2.188756 -2.168314 0.035310596
2.0670023 -2.2029858 0.26892832
1.4123383 -2.0624871 -0.94514662
1.8139486 -2.0045369 -0.89388442
2.0348873 -1.9769218 -0.79206896
2.1944761 -1.959579 -0.67357981
2.2863712 -1.9537641 -0.53335625
2.3315067 -1.9560168 -0.37630951
2.3306475 -1.9663295 -0.20057353
2.2742033 -1.9865125 -4.8577785e-06
2.1356583 -2.0214033 0.23946038
1.530367 -1.8722802 -0.98130947
2.3411398 -1.7551924 -1.0632173
2.6464138 -1.7162269 -0.99763882
2.7762747 -1.7045269 -0.87794912
2.8782988 -1.697119 -0.75032127
2.9174328 -1.6996553 -0.60011297
2.9236679 -1.7074871 -0.43633038
2.8401308 -1.7298542 -0.233904
2.4818277 -1.7969263 0.090878874
2.3766861 -1.5746363 -1.4049265
2.6611929 -1.5423969 -1.3277829
2.8219147 -1.5273986 -1.2176417
2.9567947 -1.5159332 -1.1019763
3.0393591 -1.5118511 -0.97036272
3.1214228 -1.5077993 -0.8394357
3.164876 -1.5092982 -0.69462806
3.1907625 -1.5133705 -0.54251444
3.2090616 -1.5185961 -0.38638312
3.1665516 -1.5328232 -0.20301595
3.1132107 -1.5488029 -0.011714995
2.8408775 -1.597515 0.28417388
2.4355288 -1.4026998 -1.5839131
2.6850624 -1.3781796 -1.4948891
2.8457308 -1.3647052 -1.3843235
2.9811363 -1.3543215 -1.2687833
3.090229 -1.3472097 -1.1468314
3.1671953 -1.3441706 -1.015268
3.2437582 -1.3411523 -0.88427693
3.2882376 -1.3422858 -0.74174792
3.3183565 -1.3453126 -0.59323943
3.3486109 -1.3483533 -0.44405949
3.3277264 -1.3581977 -0.27219498
3.3026991 -1.3686976 -0.096094221
3.2205276 -1.3869562 0.10894528
3.080267 -1.4132249 0.3462328
2.3578768 -1.2492963 -1.7237165
2.6115322 -1.2271606 -1.6327037
2.8053999 -1.2115227 -1.5299948
2.9330235 -1.2032101 -1.4110688
3.0540829 -1.1955589 -1.2922138
3.1538496 -1.1902592 -1.168218
3.2275991 -1.1878897 -1.0364865
3.3010283 -1.1855325 -0.90526831
3.3462677 -1.1864177 -0.76391345
3.3788652 -1.1887847 -0.61729491
3.4116468 -1.1911547 -0.47011241
3.4030876 -1.1984159 -0.30454123
3.3915682 -1.2061039 -0.13566792
3.3525276 -1.2171474 0.04802075
3.2665071 -1.2339269 0.25721392
3.0566759 -1.2657723 0.53230035
2.154047 -1.1074837 -1.8327776
2.4808474 -1.0811599 -1.756039
2.6792707 -1.0671363 -1.651482
2.8666449 -1.0540584 -1.5478619
2.991415 -1.0470366 -1.4289595
3.1115017 -1.0404092 -1.310657
3.2094498 -1.0359248 -1.1869086
3.2823668 -1.0339065 -1.055725
3.3550005 -1.0318959 -0.92505151
3.4001789 -1.0326486 -0.78450572
3.4330626 -1.034662 -0.63884127
3.4660749 -1.0366833 -0.49260768
3.4587088 -1.0428846 -0.32841504
3.4475803 -1.049541 -0.16060981
3.4109049 -1.0589271 0.021076113
3.3387136 -1.0721297 0.22270051
3.2192688 -1.0904449 0.45188507
2.8477488 -1.1356198 0.81581521
2.2383671 -0.94226855 -1.8537408
2.5495272 -0.92097592 -1.7740906
2.7400999 -0.90958542 -1.6683445
2.9232225 -0.89870864 -1.5643672
3.0448418 -0.89293295 -1.4453288
3.1629324 -0.8873992 -1.3271767
3.2596321 -0.88363999 -1.2037779
3.3320999 -0.88192666 -1.0731947
3.4042606 -0.8802222 -0.94310749
3.4492569 -0.88086116 -0.80325186
3.4821043 -0.88256806 -0.65833771
3.5150528 -0.88428384 -0.5128504
3.5089579 -0.88946456 -0.34998235
3.4991808 -0.89502662 -0.18358719
3.4657631 -0.90275687 -0.0042434931
3.3970823 -0.91373235 0.19480172
3.2838411 -0.92884368 0.41994837
3.0922527 -0.95122099 0.69078481
1.7782869 -0.81304789 -1.9056892
2.3070164 -0.78047198 -1.8708082
2.6086893 -0.76336443 -1.7896413
2.7945309 -0.75418246 -1.6834337
2.9761257 -0.74520677 -1.5798005
3.096303 -0.74047685 -1.461096
3.212925 -0.73595119 -1.3432342
3.308218 -0.73290074 -1.2201099
3.379982 -0.73150563 -1.0900143
3.4514742 -0.73011583 -0.9604131
3.4964018 -0.7306357 -0.82125986
3.5294256 -0.73202747 -0.67715108
3.5625505 -0.73342645 -0.53248131
3.5576954 -0.73763418 -0.37090123
3.5485106 -0.74220645 -0.20555404
3.5161991 -0.74854678 -0.027522713
3.4484749 -0.7576015 0.17023697
3.3414431 -0.76970714 0.39145985
3.1662598 -0.78709221 0.65294015
1.8668947 -0.64555573 -1.92647
2.3668003 -0.62106663 -1.8856715
2.6637497 -0.60762703 -1.8041134
2.8457708 -0.60047978 -1.6976384
3.0234194 -0.59350669 -1.5935975
3.1421261 -0.58979237 -1.4751357
3.2576628 -0.58622038 -1.3576035
3.3525763 -0.58378869 -1.2350219
3.423975 -0.5826807 -1.1054677
3.4950762 -0.58157843 -0.97639453
3.5398407 -0.58199072 -0.83785182
3.5728054 -0.58309454 -0.69439614
3.6058683 -0.58420408 -0.55038464
3.6011238 -0.58755052 -0.38954124
3.5928869 -0.59113878 -0.22531477
3.5621481 -0.59610355 -0.048730463
3.4975681 -0.60314471 0.14677134
3.3952799 -0.61252832 0.36483374
3.221983 -0.62630486 0.62444544
1.9367075 -0.48128095 -1.942843
2.4211931 -0.46354014 -1.8991942
2.7116165 -0.45372155 -1.8166952
2.8924332 -0.44840172 -1.7105737
3.0686951 -0.44322047 -1.6068057
3.186944 -0.4404445 -1.4888675
3.3009052 -0.43782297 -1.3714931
3.3950052 -0.4360247 -1.2492843
3.4657621 -0.43521199 -1.1201464
3.5362835 -0.43440115 -0.99149883
3.580946 -0.43470553 -0.8535527
3.6140881 -0.43551639 -0.71080834
3.6473541 -0.43633026 -0.56753027
3.6432848 -0.43880066 -0.40763772
3.6361322 -0.44143394 -0.24457181
3.6053276 -0.44515026 -0.068659931
3.5416737 -0.45037934 0.12569037
3.4405508 -0.45735395 0.34244338
3.2747965 -0.46733344 0.59743869
1.9942856 -0.31926629 -1.9563468
2.4698496 -0.30767825 -1.9112912
2.7555943 -0.30125597 -1.8282542
2.9349451 -0.29774427 -1.7223587
3.108161 -0.29436976 -1.618319
3.2265701 -0.29250902 -1.5010087
3.3398647 -0.29077458 -1.384007
3.4340334 -0.28956813 -1.2624041
3.5044479 -0.28903043 -1.1337358
3.5745754 -0.28849551 -1.0055343
3.6191206 -0.28869617 -0.86813414
3.6522074 -0.28923261 -0.7259627
3.6854429 -0.28977028 -0.58327258
3.6810055 -0.29142219 -0.42382771
3.6741047 -0.29316437 -0.26148134
3.6436577 -0.29562533 -0.086351484
3.5825891 -0.29902804 0.10613343
3.4837055 -0.30360389 0.32109967
3.3201265 -0.31018415 0.57425869
2.0423307 -0.158969 -1.9676148
2.5114412 -0.15326107 -1.9216313
2.7926426 -0.15011026 -1.8379925
2.9745655 -0.14831588 -1.7333418
3.146697 -0.14664109 -1.6295611
3.2651901 -0.1457068 -1.5128416
3.3770895 -0.14485663 -1.3959635
3.4709206 -0.1442555 -1.2748042
3.5408039 -0.14399162 -1.1465062
3.610405 -0.14372905 -1.0186671
3.6548929 -0.14382754 -0.88179815
3.688158 -0.14409046 -0.74025518
3.7215452 -0.14435434 -0.59819329
3.7173281 -0.14517428 -0.43941838
3.7113991 -0.14602819 -0.27808815
3.6803799 -0.14726426 -0.10330069
3.6199331 -0.14895339 0.088283449
3.5185328 -0.15127616 0.30387536
3.360074 -0.15448608 0.55383086
2.0760717 4.7902195e-06 -1.9755281
2.5498953 4.7902195e-06 -1.9311914
2.8263035 4.7902195e-06 -1.8468399
3.0096912 4.7902195e-06 -1.7430793
3.1791611 4.7902195e-06 -1.639032
3.2992668 4.7902195e-06 -1.5232822
3.410573 4.7902195e-06 -1.4067185
3.5049009 4.7902195e-06 -1.2862273
3.5744877 4.7902195e-06 -1.1583387
3.6437941 4.7902195e-06 -1.0309058
3.6881561 4.7902195e-06 -0.89450347
3.7213697 4.7902195e-06 -0.7534588
3.7547064 4.7902195e-06 -0.61189902
3.7497673 4.7902195e-06 -0.45334157
3.7440739 4.7902195e-06 -0.29263791
3.711916 4.7902195e-06 -0.11785614
3.6536741 4.7902195e-06 0.072155863
3.551672 4.7902195e-06 0.2874845
3.3850965 4.7902195e-06 0.54103494
2.1050329 0.15811495 -1.9823202
2.5807085 0.15231188 -1.9388524
2.8544683 0.14925985 -1.8542427
3.0426493 0.14737369 -1.7522159
3.2112331 0.14574395 -1.6483883
3.3322878 0.14476894 -1.5333991
3.4423628 0.14393984 -1.4169294
3.5368357 0.14332487 -1.2969618
3.605937 0.14306735 -1.1693858
3.6747913 0.14281076 -1.0422671
3.7191124 0.14290687 -0.90632761
3.7524557 0.14316382 -0.76581681
3.7855911 0.14342651 -0.62466389
3.7808199 0.14424969 -0.46666965
3.7759666 0.14508274 -0.30684003
3.7424469 0.14635092 -0.13194767
3.6847305 0.14799432 0.057311863
3.5781097 0.15039033 0.27440915
3.4013519 0.15387194 0.53272271
1.9513912 0.32045746 -1.9462868
2.6099663 0.30380905 -1.9461265
2.8791199 0.29782906 -1.8607225
3.0711393 0.29394606 -1.7601138
3.2374115 0.29074755 -1.6560253
3.3611307 0.28871855 -1.5422367
3.4707603 0.2870689 -1.4260505
3.5660887 0.28581047 -1.3067956
3.6349115 0.28529915 -1.1795636
3.7035141 0.28478894 -1.0527955
3.7477255 0.28498006 -0.91725689
3.7810497 0.28549021 -0.77718413
3.8129539 0.28604722 -0.63597298
3.8083534 0.28768438 -0.47848755
3.8036728 0.28934112 -0.31917724
3.76793 0.2919392 -0.14370981
3.7121229 0.29516488 0.044218928
3.6026516 0.30003819 0.26227084
3.4120293 0.30741647 0.52726305
2.631403 0.45482102 -1.9514562
2.8990765 0.44590843 -1.8659678
3.0979223 0.43979347 -1.7675384
3.2634583 0.43502113 -1.6636237
3.3890715 0.43189186 -1.5507971
3.4976444 0.42945638 -1.4346852
3.5934505 0.42754239 -1.3159935
3.6618834 0.42678621 -1.1890384
3.7300758 0.42603266 -1.0625314
3.7742615 0.42631453 -0.92739296
3.8076935 0.42706904 -0.78777659
3.8384352 0.42794964 -0.64650446
3.8345718 0.4303669 -0.48974094
3.8306646 0.43281159 -0.33119643
3.7927685 0.43679842 -0.15517393
3.7374029 0.4416112 0.032135397
3.621397 0.44920972 0.25300011
3.4143143 0.46101874 0.52609468
2.6491442 0.60544419 -1.9558667
2.9155588 0.5936259 -1.8703004
3.1202335 0.58514202 -1.7737235
3.2838345 0.57888138 -1.6695684
3.4129848 0.57450354 -1.5581242
3.5211182 0.57127434 -1.4422255
3.6181841 0.56864375 -1.3243078
3.6864042 0.56764042 -1.197652
3.754385 0.56664068 -1.0714414
3.7984781 0.56701463 -0.93664247
3.8318701 0.56801575 -0.79738796
3.8610115 0.56927609 -0.65583527
3.8572845 0.57248414 -0.49948987
3.853591 0.57572407 -0.34140599
3.8126917 0.58121127 -0.1643692
3.7589874 0.58752269 0.021818548
3.6381407 0.59793812 0.24471888
3.4116611 0.61485028 0.52745032
2.633111 0.75791365 -1.9518808
2.9273748 0.74120939 -1.8734061
3.1410208 0.72997344 -1.7794858
3.3041315 0.72217482 -1.6754893
3.4361572 0.71649218 -1.5652241
3.5433474 0.71251434 -1.4493655
3.641345 0.70915169 -1.3320938
3.7092152 0.70791417 -1.2056645
3.7768488 0.70668101 -1.0796758
3.8209057 0.70714277 -0.94520903
3.8544092 0.70837754 -0.80634868
3.8820915 0.71005124 -0.66454798
3.8790922 0.71399969 -0.50885022
3.8760328 0.71799421 -0.35139906
3.8319721 0.72507948 -0.17326793
3.7785587 0.73293936 0.012463897
3.6492634 0.74658573 0.23921815
3.4011545 0.76935548 0.5328238
2.6167307 0.91085571 -1.9478081
2.9361486 0.88871807 -1.8757119
3.1575575 0.87458009 -1.7840701
3.3189545 0.86535931 -1.6798137
3.4552517 0.85817194 -1.5710744
3.5621357 0.85341644 -1.4554001
3.6617374 0.84923577 -1.3389491
3.7294331 0.8477568 -1.2127668
3.7969189 0.84628093 -1.0870322
3.8408737 0.84683484 -0.95283657
3.8743439 0.84831053 -0.81427372
3.9002581 0.85046518 -0.67205584
3.897315 0.85518998 -0.5166713
3.8943377 0.85996759 -0.35955054
3.8465996 0.86878937 -0.18001941
3.7916918 0.87834823 0.0061863959
3.6586504 0.89505541 0.23457512
3.385891 0.92460942 0.54062915
2.5890188 1.0653492 -1.9409188
2.940217 1.0364407 -1.8767813
3.1724834 1.018882 -1.7882079
3.3335476 1.0081499 -1.6840709
3.4739876 0.99934787 -1.576815
3.5801363 0.99386346 -1.4611819
3.6809368 0.98885721 -1.3454031
3.7483425 0.98715115 -1.2194091
3.8154926 0.98545337 -1.09384
3.8594503 0.98608959 -0.95993215
3.893012 0.98779213 -0.82169545
3.9172707 0.99046552 -0.67908722
3.9148731 0.99591237 -0.52420771
3.911026 1.0015669 -0.36698157
3.8604469 1.0121455 -0.18641108
3.7953386 1.0243573 0.0044434369
3.6624966 1.0438259 0.23267302
3.2876768 1.0890982 0.59085166
2.5595875 1.2208002 -1.9336015
2.9420652 1.1842974 -1.8772675
3.1839027 1.1631589 -1.7913734
3.3435812 1.1510428 -1.6869982
3.488554 1.1404659 -1.5812777
3.5944691 1.134216 -1.4657856
3.6971426 1.1282725 -1.3508509
3.7644117 1.1263291 -1.2250533
3.8313999 1.1243979 -1.0996706
3.8752708 1.1251255 -0.96597511
3.9088554 1.1270592 -0.82799351
3.9310246 1.1303495 -0.6847719
3.928731 1.1365539 -0.53015578
3.9198589 1.1436019 -0.37091503
3.8703318 1.1555611 -0.19097337
3.7954941 1.1706749 0.0043695271
3.6650858 1.192632 0.23139235
2.4531307 1.3866612 -1.9071347
2.9390507 1.3327115 -1.8764749
3.1857586 1.3083197 -1.7918876
3.3530121 1.29373 -1.6897494
3.5030766 1.2811779 -1.5857276
3.6083288 1.2742221 -1.4702374
3.7123938 1.2673482 -1.3559774
3.7795324 1.2651684 -1.2303649
3.8462925 1.2630154 -1.1051296
3.8901806 1.263822 -0.97167003
3.9238615 1.2659745 -0.83395934
3.9441252 1.2699168 -0.69018638
3.9423752 1.2768155 -0.53601277
3.9287014 1.2853744 -0.37485272
3.8793631 1.2987971 -0.19514185
3.792882 1.3173599 0.0056175292
3.6315622 1.3462446 0.2479724
2.9339848 1.4814945 -1.8751433
3.178442 1.4547107 -1.7898597
3.3579464 1.4367841 -1.6911886
3.5129337 1.4221385 -1.5887476
3.6181326 1.4144107 -1.473386
3.7220666 1.4067842 -1.3592293
3.7915316 1.404022 -1.2345798
3.8581896 1.4016355 -1.1094903
3.9020567 1.4025259 -0.97620565
3.9356658 1.404919 -0.83865237
3.9535666 1.4096363 -0.69408858
3.95187 1.4172865 -0.54008734
3.9327564 1.4275937 -0.37665802
3.8844652 1.4423486 -0.19749695
3.7868004 1.4646419 0.0085248053
3.5938082 1.501501 0.26664487
2.883894 1.6373079 -1.8619772
3.1680508 1.6017792 -1.7869791
3.3618422 1.57986 -1.6923255
3.5167322 1.5637618 -1.5899116
3.6279411 1.5543199 -1.4765368
3.7314224 1.5459943 -1.3623741
3.8031044 1.5425985 -1.2386451
3.8695669 1.5399953 -1.1136603
3.9133883 1.5409722 -0.98053437
3.9470768 1.5435829 -0.84318852
3.9628429 1.549106 -0.69792259
3.9613209 1.557485 -0.54414427
3.93641 1.5697582 -0.37828505
3.8881502 1.5859803 -0.19919732
3.7769499 1.6127253 0.013232619
3.5445423 1.659795 0.29101065
2.8312979 1.7949331 -1.8481526
3.1545401 1.7496618 -1.7832334
3.3622398 1.7234162 -1.6924413
3.5160866 1.706031 -1.5897137
3.6334982 1.6946751 -1.4783216
3.7368422 1.6856112 -1.3641958
3.8111181 1.6814557 -1.2414601
3.8774881 1.6786246 -1.1165637
3.921279 1.6796888 -0.98354828
3.9550009 1.6825234 -0.84633934
3.9681702 1.6889976 -0.70012414
3.9668503 1.6980979 -0.54651701
3.9361372 1.7125114 -0.37816343
3.887722 1.7302364 -0.19899946
3.7647924 1.7615173 0.01904431
3.3721666 1.8417726 0.37626448
2.7675314 1.9560412 -1.8313922
3.137085 1.8986386 -1.7783948
3.3623991 1.8670048 -1.6924875
3.5202179 1.8474416 -1.5909793
3.6466675 1.8334678 -1.4825517
3.7527666 1.8231254 -1.369549
3.8303308 1.8179955 -1.2482091
3.8976364 1.8147349 -1.1239492
3.9409609 1.8159562 -0.99106634
3.9735794 1.8192167 -0.85372508
3.9826565 1.8269907 -0.70611149
3.9787226 1.837335 -0.55161297
3.9384718 1.8547713 -0.37920287
3.8720026 1.8774608 -0.19174445
3.7389984 1.9133226 0.031372398
3.1830845 2.0356848 -1.7911464
3.4319401 1.9969418 -1.7127749
3.6004343 1.9736947 -1.6155566
3.726078 1.9587257 -1.5080582
3.8350506 1.9469336 -1.3972098
3.9102857 1.9417927 -1.2762947
3.9778099 1.9381545 -1.1533359
4.0205421 1.9395063 -1.0214635
4.0521021 1.9431496 -0.88494158
4.0615807 1.9513557 -0.73873103
4.0537586 1.9632114 -0.58381987
4.0114517 1.9823335 -0.41170084
3.9371214 2.0083246 -0.22179991
3.7543507 2.0572882 0.024035364
2.9268618 2.2237256 -1.8732712
3.3285894 2.1505792 -1.8314828
3.5454044 2.1156683 -1.745876
3.7111292 2.0912268 -1.6494722
3.8233967 2.0779176 -1.5393173
3.9305048 2.0655768 -1.4292974
4.000598 2.0610697 -1.3080193
4.0673733 2.0572338 -1.1861643
4.1097212 2.0586655 -1.0555271
4.1410818 2.0625117 -0.92031634
4.155097 2.0702066 -0.7773813
4.1481514 2.0826082 -0.62433493
4.1179533 2.1002994 -0.45912606
4.0574236 2.1249437 -0.27732569
3.914917 2.1682327 -0.0527125
3.1634378 2.3193212 -1.935454
3.4231269 2.2728057 -1.8576899
3.5885296 2.2470186 -1.7584562
3.4307489 2.2939866 -1.563567
3.4817247 2.294028 -1.4295721
3.5338459 2.2938085 -1.2959574
3.5852604 2.2937491 -1.1621226
3.6355124 2.2939568 -1.0278705
3.6867485 2.2939391 -0.89396548
3.738924 2.2937016 -0.76043737
3.7894192 2.2938559 -0.62624604
3.8397675 2.2940459 -0.49197158
4.1302557 2.2374077 -0.46460399
4.1097174 2.2541652 -0.30146176
4.021184 2.2873642 -0.1035057
3.7701931 2.3599844 0.17940798
2.5797949 2.6022925 -1.7820466
2.4414206 2.6481578 -1.5855464
2.4220428 2.6660616 -1.4181587
2.4776564 2.6661448 -1.2715493
2.5339308 2.6660693 -1.125142
2.5913515 2.6657147 -0.97912937
2.6482639 2.6654811 -0.83298236
2.702239 2.6659636 -0.68578851
2.7584724 2.6658957 -0.53939587
2.8164091 2.6654055 -0.39368924
2.870718 2.6658127 -0.2465454
2.9258881 2.6660089 -0.09971869
2.9815464 2.6660843 0.046914905
3.0376844 2.6660392 0.19333687
3.2217989 2.633471 0.27858338
0 0 0 1 0 0 0 1 0 0 0 1 0 0 0 0 0 592 1 0 0
