ply
format ascii 1.0
comment PCL generated
element vertex 580
property float x
property float y
property float z
element camera 1
property float view_px
property float view_py
property float view_pz
property float x_axisx
property float x_axisy
property float x_axisz
property float y_axisx
property float y_axisy
property float y_axisz
property float z_axisx
property float z_axisy
property float z_axisz
property float focal
property float scalex
property float scaley
property float centerx
property float centery
property int viewportx
property int viewporty
property float k1
property float k2
end_header
-2.3677835 -2.5119281 -0.18957591
-2.2993579 -2.4369392 -0.010139942
-2.2463689 -2.344244 0.18932581
-2.2234197 -2.2184377 0.42541349
-2.4718919 -2.4924307 -0.6030128
-2.3572931 -2.4635782 -0.47294146
-2.2641706 -2.4131167 -0.32133001
-2.1759076 -2.3560784 -0.16197616
-2.1017127 -2.2829466 0.014782071
-2.066092 -2.1679993 0.23533428
-2.1015096 -1.9753231 0.5377624
-2.5000548 -2.4080772 -0.8454895
-2.3766661 -2.3880694 -0.72516519
-2.2637405 -2.3572555 -0.59437639
-2.1477361 -2.3283553 -0.46457332
-2.0393109 -2.2908108 -0.32584071
-1.9451188 -2.2373564 -0.17087066
-1.8800129 -2.1516552 0.0168401
-1.8923429 -1.9806362 0.29083431
-2.0927172 -1.5997975 0.77871585
-0.071270585 -3.0677657 -0.21861553
0.068021536 -3.0762367 -0.13412493
0.091671109 -2.9401171 0.10761833
-2.4216104 -2.2888656 -0.95279551
-2.2961626 -2.2704656 -0.83450234
-2.163507 -2.2585373 -0.72151899
-2.0326824 -2.2443311 -0.6061672
-1.8970824 -2.2344961 -0.49446845
-1.7701353 -2.2152472 -0.37374949
-1.6578449 -2.1796432 -0.23709494
-1.5843867 -2.1004648 -0.057827473
-1.861605 -1.6296039 0.50332785
-0.30927598 -3.0603886 -0.69981372
-0.092634797 -3.1619909 -0.71000946
0.053237438 -3.182786 -0.64030188
0.19466847 -3.1990383 -0.56643009
0.30725187 -3.1797075 -0.45573616
0.41430378 -3.152349 -0.33604461
0.5226171 -3.1253505 -0.21604043
0.55910814 -2.9999733 0.01137805
-2.4887156 -2.1687171 -1.1610389
-2.3560147 -2.157373 -1.0494585
-2.2166266 -2.1522856 -0.94293731
-2.0716534 -2.1526759 -0.84103584
-1.9141637 -2.1660004 -0.75051934
-1.7599622 -2.1763656 -0.65769798
-1.5936557 -2.2000978 -0.57722867
-1.4351462 -2.2162347 -0.49039042
-1.2774521 -2.2321033 -0.40370917
-1.1560575 -2.207355 -0.27915353
-0.26355398 -3.0761242 -1.0071808
-0.070096135 -3.1534801 -0.99140304
0.085411668 -3.1882474 -0.93583316
0.22375721 -3.20332 -0.861588
0.35883236 -3.2149363 -0.78424788
0.49331242 -3.2263172 -0.70696104
0.62562221 -3.2353611 -0.62755281
0.72989446 -3.2068229 -0.50917464
0.83424401 -3.176981 -0.38870287
0.93178636 -3.1359277 -0.25550586
0.96942461 -3.005173 -0.024335504
-2.4354906 -2.0251174 -1.2480863
-2.2986155 -2.0173533 -1.1394836
-2.1477714 -2.0235603 -1.0422685
-1.9816827 -2.0458274 -0.9587186
-1.8100005 -2.0748363 -0.88147545
-1.6269153 -2.1172318 -0.81654477
-1.4332989 -2.1728287 -0.76426136
-1.2510985 -2.2178206 -0.70390838
-1.067839 -2.2658236 -0.64738989
-0.28340125 -3.0167079 -1.2356296
-0.093367219 -3.0914373 -1.2150007
0.064556003 -3.1303172 -1.162511
0.21964496 -3.1673687 -1.1092424
0.37110317 -3.2014589 -1.0540344
0.51520652 -3.22755 -0.99185085
0.64462191 -3.2353392 -0.91219628
0.77371055 -3.2430544 -0.83266044
0.90052497 -3.2479775 -0.75048244
1.0203419 -3.2431505 -0.65841192
1.1215677 -3.2108352 -0.53764743
1.2225199 -3.1764054 -0.41385782
1.2959315 -3.0975742 -0.24195915
1.3403635 -2.9683514 -0.013851166
-2.4011955 -1.8615315 -1.3204498
-2.2520695 -1.8654747 -1.2208419
-2.0858965 -1.8873711 -1.1357695
-1.9069737 -1.9236391 -1.0629662
-1.7159513 -1.9743791 -1.0030413
-1.5031704 -2.0510888 -0.96619242
-1.3005046 -2.1193898 -0.92404312
-1.0981959 -2.1899886 -0.88554853
-0.35941947 -2.8919864 -1.4028424
-0.13811684 -3.0041587 -1.4124899
0.03437674 -3.0614622 -1.3753873
0.19479537 -3.1061723 -1.3281715
0.34548873 -3.1404517 -1.2723844
0.49366868 -3.1729982 -1.215808
0.63875729 -3.2029202 -1.1575308
0.78222638 -3.2320418 -1.099213
0.91379744 -3.2459376 -1.0267586
1.0380046 -3.2499738 -0.94490814
1.160851 -3.2522154 -0.86136305
1.282732 -3.253119 -0.77651846
1.3897004 -3.2310004 -0.66812152
1.4883879 -3.1945062 -0.54428959
1.5872272 -3.1562004 -0.41766769
1.636966 -3.0330944 -0.20017183
-2.5392232 -1.6693633 -1.4765267
-2.3747988 -1.6879613 -1.3870645
-2.217422 -1.6998169 -1.2928689
-2.0418582 -1.7315669 -1.2144841
-1.8514937 -1.7806259 -1.1505797
-1.6360687 -1.8593683 -1.1117337
-1.4077703 -1.9557143 -1.0891558
-1.1899995 -2.0436919 -1.0619612
-0.46338665 -2.7342234 -1.5433563
-0.20897627 -2.8857141 -1.5817888
-0.031315923 -2.9494014 -1.5479496
0.13869393 -3.0062203 -1.5096209
0.3033033 -3.0586004 -1.4687146
0.4646135 -3.1089954 -1.4272798
0.61169767 -3.1426499 -1.3717781
0.75438565 -3.1718528 -1.3129697
0.89386916 -3.1979554 -1.2519586
1.0321877 -3.2236607 -1.1911989
1.1676375 -3.2464299 -1.1282365
1.2894088 -3.2497182 -1.0468702
1.4089104 -3.2496622 -0.96228927
1.5270485 -3.2474339 -0.87554133
1.6422577 -3.2402906 -0.78378117
1.739603 -3.202682 -0.66074675
1.8366423 -3.1623292 -0.53397322
1.9083066 -3.0742416 -0.35634822
1.9269199 -2.8830011 -0.067572117
-2.535614 -1.4702804 -1.5278878
-2.3638897 -1.4957554 -1.4421892
-2.2057142 -1.5075692 -1.346911
-2.0247416 -1.544799 -1.2711587
-1.8189372 -1.6111436 -1.2186813
-1.5780245 -1.7199584 -1.2009431
-1.3357223 -1.834615 -1.1904151
-1.090185 -1.9576426 -1.1893405
-0.32071567 -2.717855 -1.7114409
-0.10435498 -2.828258 -1.713291
0.073901653 -2.8953979 -1.6814083
0.23967946 -2.9493985 -1.6399218
0.40243793 -3.0018115 -1.5983433
0.5599305 -3.0495138 -1.5538816
0.71532989 -3.0965374 -1.5099481
0.8656193 -3.1385937 -1.4626615
1.0033089 -3.1645408 -1.401691
1.1379812 -3.1873205 -1.3384118
1.2716101 -3.2096767 -1.2752765
1.4034402 -3.2304034 -1.2111278
1.5293596 -3.2428207 -1.1395047
1.6459336 -3.2406199 -1.0539877
1.7611399 -3.2359934 -0.96603566
1.8763701 -3.2311392 -0.87774789
1.9778811 -3.2015228 -0.76443183
2.0738597 -3.1599069 -0.63819855
2.1596057 -3.0962317 -0.48826236
2.2169228 -2.9726653 -0.27443135
-2.3790641 -1.2722309 -1.4779474
-2.2229743 -1.2802796 -1.3785609
-2.0416007 -1.316996 -1.3004255
-1.8270298 -1.3930535 -1.2525128
-1.5614446 -1.5314834 -1.2536607
-1.2922641 -1.6796193 -1.2655144
-0.49766207 -2.4704554 -1.7830691
-0.21346009 -2.6624024 -1.8440993
-0.022996783 -2.7440135 -1.8208137
0.15960133 -2.8189602 -1.7939929
0.33634961 -2.8894618 -1.7652415
0.49822879 -2.9430761 -1.7239547
0.65406084 -2.9908011 -1.6789054
0.80607271 -3.0353634 -1.6322405
0.95558035 -3.0784369 -1.5853144
1.1017125 -3.1186249 -1.5368366
1.2415638 -3.1513071 -1.4825552
1.3727179 -3.1721501 -1.4182639
1.5021064 -3.1912756 -1.352877
1.630723 -3.2101707 -1.2877219
1.7569619 -3.2261152 -1.2202202
1.8730291 -3.2253528 -1.1371076
1.98647 -3.2198627 -1.0493994
2.0989172 -3.2122135 -0.95944667
2.2050867 -3.1921921 -0.85704607
2.3005776 -3.1499903 -0.73192197
2.3956141 -3.1040511 -0.60201818
2.4557431 -2.9819477 -0.39283943
-2.4210725 -1.0144866 -1.4942397
-2.2745194 -1.009604 -1.3841248
-2.1078396 -1.0276598 -1.2902496
-1.9046034 -1.0891989 -1.2282878
-1.6351043 -1.2322099 -1.2276974
-1.2984258 -1.462653 -1.2957481
-0.37564635 -2.4301693 -1.9284827
-0.12823927 -2.5817149 -1.9548509
0.057945251 -2.6604249 -1.9277563
0.23749483 -2.7337532 -1.8982041
0.41241503 -2.8040543 -1.8679037
0.58138984 -2.8693051 -1.8350991
0.74589932 -2.9312501 -1.8010604
0.89574814 -2.9749074 -1.7530954
1.0429559 -3.0167589 -1.7045987
1.1870887 -3.0560117 -1.6548245
1.329134 -3.0940061 -1.6048546
1.4682882 -3.1293597 -1.5534209
1.5990564 -3.1528516 -1.4921603
1.7246624 -3.1689367 -1.4247108
1.8496394 -3.1848407 -1.3574653
1.9734111 -3.1995189 -1.289444
2.0920863 -3.2057195 -1.2137649
2.2032804 -3.1981478 -1.1250806
2.3139725 -3.1891129 -1.0348074
2.4232368 -3.1766069 -0.94093305
2.5176575 -3.132302 -0.81531352
2.6133404 -3.0876086 -0.68828517
2.6819124 -2.9790149 -0.49554282
-2.3720641 -0.67916501 -1.3550289
-2.2336688 -0.66061544 -1.2331862
-2.1262393 -0.60423553 -1.0843297
-2.0360699 -0.52454877 -0.91754484
-2.1385608 -0.20150137 -0.57235551
-0.29542422 -2.3402138 -2.0341599
-0.067575812 -2.4705331 -2.0415339
0.13297451 -2.5702 -2.0285807
0.31476361 -2.6487818 -2.0016332
0.48698628 -2.7176075 -1.9688369
0.65490562 -2.7834687 -1.9352505
0.81753135 -2.8447218 -1.8994498
0.97711813 -2.9043844 -1.8637414
1.1286467 -2.9547083 -1.8216573
1.2715328 -2.9940805 -1.7715254
1.411025 -3.0300493 -1.7193924
1.5490681 -3.0655355 -1.6676607
1.684441 -3.098443 -1.6144831
1.8170455 -3.1283858 -1.5594301
1.9402468 -3.14329 -1.4915831
2.0619645 -3.1563509 -1.4224017
2.1832471 -3.1693814 -1.3534889
2.3031139 -3.1804695 -1.2830659
2.4129391 -3.1720715 -1.1945502
2.5221431 -3.1618209 -1.1040783
2.6307821 -3.1496463 -1.011519
2.7272303 -3.1094437 -0.8913421
2.8219743 -3.0623198 -0.76342249
2.8965116 -2.9630766 -0.5824073
2.9044299 -2.6896214 -0.22326338
-0.22479224 -2.2387726 -2.1307323
-0.012703061 -2.3515184 -2.1226358
0.18633348 -2.4513776 -2.107553
0.37809795 -2.5455294 -2.0904303
0.56121415 -2.631634 -2.0692968
0.72713017 -2.6967101 -2.033865
0.88842225 -2.7579761 -1.9969077
1.0459141 -2.8164086 -1.9590727
1.1996857 -2.8719244 -1.9201977
1.3499916 -2.9247084 -1.8803359
1.4920802 -2.9667454 -1.832761
1.6282679 -3.0010798 -1.7796664
1.7621326 -3.0332742 -1.7255213
1.8946546 -3.064894 -1.6716028
2.0246248 -3.0936732 -1.6159143
2.1491308 -3.1138592 -1.5532761
2.2684131 -3.1251273 -1.4831102
2.386868 -3.1354504 -1.4123396
2.5050325 -3.1458495 -1.3418707
2.6165535 -3.1427131 -1.2590663
2.7238488 -3.1299791 -1.1671736
2.8315358 -3.117218 -1.0749695
2.9301648 -3.0818701 -0.96074873
3.0243425 -3.0327048 -0.83228803
3.1026146 -2.9384475 -0.65833277
3.1243606 -2.683969 -0.32273448
-0.18510103 -2.0964704 -2.1985359
0.042446494 -2.2323694 -2.2040772
0.23983687 -2.3321805 -2.1867442
0.43022168 -2.4264588 -2.1675887
0.61335647 -2.5144691 -2.1458831
0.79021704 -2.5972285 -2.1221828
0.95902765 -2.671653 -2.093967
1.1144179 -2.7287376 -2.0540032
1.2673358 -2.7847195 -2.0144374
1.415885 -2.8363976 -1.9726899
1.5623658 -2.887311 -1.9314684
1.7049533 -2.934237 -1.888116
1.8390975 -2.9687424 -1.8355219
1.9695802 -2.9985168 -1.779723
2.0986762 -3.0274324 -1.7238524
2.2261658 -3.0549827 -1.6674459
2.3518786 -3.080698 -1.6100483
2.4693894 -3.0911148 -1.5397133
2.5855365 -3.0993123 -1.4676251
2.7012334 -3.1070828 -1.3953317
2.8148065 -3.1105447 -1.3192633
2.9203887 -3.0952873 -1.225919
3.0264139 -3.079947 -1.1321599
3.1303816 -3.0580997 -1.0318863
3.2438407 -3.0597916 -0.95373058
3.3702316 -3.0976918 -0.91077679
3.4949036 -3.1340332 -0.86712962
3.5762691 -3.0415502 -0.69632733
-0.16630089 -1.9240594 -2.2473147
0.065114975 -2.067354 -2.2544923
0.28353959 -2.1984138 -2.2562711
0.48250324 -2.3069708 -2.2449875
0.66539443 -2.3965306 -2.2224226
0.84106368 -2.4792745 -2.1968398
1.0120314 -2.5586536 -2.1705709
1.1774198 -2.6330094 -2.1422589
1.3337022 -2.6961637 -2.1070328
1.4815221 -2.7483258 -2.064688
1.6263859 -2.7981546 -2.0216517
1.7683311 -2.8455219 -1.9777453
1.9078997 -2.8912144 -1.9335225
2.0438404 -2.9327281 -1.8868841
2.1719599 -2.9615571 -1.8306553
2.2977996 -2.9876065 -1.7727252
2.4227386 -3.013454 -1.7151911
2.5460238 -3.0374756 -1.6566502
2.6648574 -3.0533247 -1.5915149
2.7796574 -3.0610905 -1.5195961
2.8931301 -3.0662873 -1.4455538
3.0064549 -3.0715127 -1.37165
3.1183035 -3.0733876 -1.2947959
3.2472014 -3.120646 -1.2599851
3.3782635 -3.1779203 -1.2355843
3.492928 -3.1929224 -1.1723866
3.5493279 -3.0331309 -0.94202781
3.5995502 -2.8381152 -0.67404872
3.6695561 -2.6890254 -0.44682562
-0.17109382 -1.7156386 -2.2749262
0.085653305 -1.8965548 -2.3032777
0.30510914 -2.0309885 -2.304069
0.51393068 -2.1556351 -2.3010249
0.71363497 -2.2721326 -2.2949729
0.89202642 -2.3607895 -2.2716911
1.0619582 -2.440197 -2.2436597
1.227211 -2.5158811 -2.2146173
1.387253 -2.586658 -2.1835656
1.5438496 -2.6551971 -2.1523542
1.6902218 -2.7092571 -2.1115737
1.8315889 -2.7571745 -2.0672059
1.9697399 -2.801784 -2.0212746
2.1060023 -2.8453658 -1.975486
2.2396636 -2.8864033 -1.9285851
2.3688328 -2.920769 -1.8771195
2.4926329 -2.945951 -1.8187962
2.6147614 -2.9691465 -1.7593495
2.7361274 -2.9922137 -1.7002935
2.8558316 -3.0130239 -1.6397938
2.9686975 -3.0186996 -1.5665703
3.085978 -3.0359921 -1.5037034
3.2199554 -3.0986621 -1.4816769
3.3552122 -3.1700761 -1.4688902
3.4669814 -3.1804428 -1.401885
3.5045581 -2.9695778 -1.1306688
3.5619187 -2.8006558 -0.89412522
3.6217179 -2.6228359 -0.64553398
3.6858125 -2.4411476 -0.38941729
0.068284035 -1.6672342 -2.3165798
0.32697946 -1.8610878 -2.3525519
0.53672123 -1.9888314 -2.3484883
0.73720121 -2.1080625 -2.341362
0.92848229 -2.2182672 -2.3305473
1.1118392 -2.3208747 -2.3167577
1.2770256 -2.3980088 -2.2870522
1.4363661 -2.4690299 -2.2545776
1.5923452 -2.5378671 -2.2220135
1.7438555 -2.6023152 -2.1876538
1.8922799 -2.6646023 -2.1530356
2.0314281 -2.7125733 -2.1088111
2.1669388 -2.75617 -2.0622196
2.2995844 -2.7965746 -2.0140491
2.4308047 -2.8365295 -1.966379
2.5594907 -2.8735664 -1.917206
2.6829696 -2.9013433 -1.8612584
2.8031108 -2.9232602 -1.801054
2.9219961 -2.9437265 -1.7400994
3.0427794 -2.9705195 -1.6849473
3.1782842 -3.0379405 -1.665262
3.3131924 -3.1092505 -1.6503897
3.4326091 -3.1426497 -1.603663
3.4726591 -2.9435837 -1.3505608
3.5285997 -2.7752962 -1.1209769
3.5872169 -2.5992634 -0.88075459
3.6485291 -2.4143612 -0.62861109
3.7130222 -2.2208962 -0.36454934
0.018139362 -1.3829525 -2.2998419
0.29444987 -1.6046798 -2.3481328
0.54137993 -1.7905827 -2.3778286
0.76112449 -1.9416288 -2.3884411
0.95355988 -2.0550618 -2.377028
1.1375321 -2.1598821 -2.3621342
1.3154267 -2.2595572 -2.3458838
1.485696 -2.35093 -2.3259013
1.6408765 -2.4196992 -2.2917473
1.7923057 -2.4852552 -2.2567148
1.9400547 -2.5474572 -2.2205989
2.0846767 -2.6071115 -2.1838937
2.226027 -2.6636875 -2.1461194
2.3593669 -2.7068901 -2.0993121
2.4896417 -2.7462051 -2.0504
2.617763 -2.7832923 -2.0005622
2.7445812 -2.8199067 -1.9511265
2.8689995 -2.8533475 -1.8998997
2.9880676 -2.8758769 -1.8404651
3.1191328 -2.9313321 -1.8087316
3.2602015 -3.0182805 -1.804535
3.3921113 -3.086693 -1.7864437
3.441433 -2.9182918 -1.5665004
3.4960155 -2.7507191 -1.3437471
3.5532937 -2.5758257 -1.1110427
3.6132102 -2.3923264 -0.86701488
3.6760826 -2.1999798 -0.61117423
3.7421093 -1.9980599 -0.34258217
0.2000277 -1.2437408 -2.2843361
0.51347953 -1.5354444 -2.3746746
0.7492578 -1.7131801 -2.3980458
0.96911407 -1.8728085 -2.4133096
1.1636451 -1.9966638 -2.408221
1.3421361 -2.0984571 -2.3908787
1.5140811 -2.1937423 -2.3712046
1.6800927 -2.2831337 -2.3494225
1.8409721 -2.367676 -2.3260832
1.9880339 -2.4297194 -2.2884514
2.1325946 -2.4903653 -2.2510934
2.2733607 -2.5467567 -2.2118685
2.4119096 -2.6019187 -2.1728961
2.5473151 -2.6536481 -2.1324759
2.6759253 -2.6931252 -2.083756
2.8017602 -2.7287126 -2.0328388
2.9258847 -2.7626336 -1.9813488
3.054719 -2.8112888 -1.9422867
3.2001204 -2.9082453 -1.9431692
3.3388252 -2.9944186 -1.9372541
3.4181914 -2.9150391 -1.7962359
3.4641247 -2.7268319 -1.5624651
3.5199876 -2.5527089 -1.3367363
3.5786572 -2.3709335 -1.1008384
3.6399488 -2.1796782 -0.85294747
3.7044225 -1.9794778 -0.59323919
3.7758079 -1.7833929 -0.33304608
0.37272143 -1.0869173 -2.2584372
0.70838183 -1.4296327 -2.3777895
0.95036072 -1.627244 -2.4123597
1.1619341 -1.7809863 -2.4227703
1.3621587 -1.9221387 -2.4281023
1.5420715 -2.0328932 -2.4161587
1.7086662 -2.1241746 -2.3933644
1.870836 -2.2119193 -2.3700182
2.0270963 -2.2927883 -2.3436942
2.1797695 -2.3710327 -2.3171756
2.3209395 -2.4292634 -2.2779598
2.4593258 -2.485033 -2.2381511
2.594435 -2.5369539 -2.1966543
2.7277551 -2.5881872 -2.1557069
2.8580198 -2.6355209 -2.1128607
2.983355 -2.6737123 -2.0639851
3.1228352 -2.7525642 -2.0474272
3.2699571 -2.858928 -2.0541003
3.3977184 -2.9182396 -2.0254912
3.4328108 -2.7033207 -1.7769885
3.4874139 -2.5303242 -1.5583225
3.5446053 -2.3493621 -1.329536
3.6046834 -2.1602709 -1.0902472
3.6675215 -1.9613017 -0.83872575
3.7336378 -1.7527988 -0.57496357
3.8155813 -1.5843085 -0.34165514
0.86513358 -1.256578 -2.3394966
1.1429116 -1.5280792 -2.4180551
1.3523452 -1.6862205 -2.4301286
1.5456756 -1.8220862 -2.4310284
1.7298312 -1.9474854 -2.427815
1.9003297 -2.0523901 -2.4135022
2.0574505 -2.1355474 -2.3866227
2.2106295 -2.215318 -2.3591008
2.3592906 -2.2900994 -2.3297195
2.5044823 -2.3618071 -2.2996795
2.6418085 -2.419672 -2.2611814
2.7747674 -2.4708538 -2.2190015
2.9049959 -2.5187922 -2.1754684
3.0386622 -2.5794632 -2.1423998
3.1924348 -2.7002523 -2.1560013
3.3369451 -2.8043783 -2.1592762
3.4019494 -2.6798503 -1.9871889
3.4555116 -2.5085196 -1.775791
3.511375 -2.3287282 -1.554197
3.5699015 -2.1404817 -1.3221557
3.6314073 -1.9436083 -1.0792711
3.6958718 -1.7366288 -0.82405847
3.7636609 -1.5192776 -0.55599093
1.2854083 -1.3338065 -2.3649189
1.532928 -1.5733292 -2.425941
1.7264857 -1.7170489 -2.4307082
1.9065597 -1.8410642 -2.4255915
2.0779829 -1.9539864 -2.4156594
2.2419207 -2.0573599 -2.4016104
2.39136 -2.1341872 -2.3716526
2.5369787 -2.2070954 -2.3405347
2.6791654 -2.2766354 -2.3085234
2.8179891 -2.3426135 -2.2753806
2.9522359 -2.4014452 -2.2384312
3.0939841 -2.4853134 -2.2208507
3.251718 -2.6213472 -2.2433746
3.3882194 -2.7058613 -2.2301407
3.4240198 -2.4865246 -1.9886739
3.4788003 -2.3085337 -1.7745317
3.5359888 -2.1217034 -1.5499756
3.5959048 -1.9258392 -1.3145884
3.6588774 -1.7207478 -1.0679462
3.7250271 -1.5053566 -0.80890727
3.8030043 -1.3140414 -0.5652318
1.6765758 -1.3827149 -2.3737042
1.8928726 -1.5809962 -2.4108753
2.0803823 -1.7278084 -2.4190524
2.2487187 -1.8401895 -2.4077735
2.4103227 -1.9440775 -2.3931122
2.5663514 -2.0414298 -2.3761263
2.7128143 -2.1214852 -2.3493204
2.8521109 -2.1886311 -2.3152039
2.9890666 -2.2545021 -2.2815199
3.1498342 -2.3927197 -2.3003659
3.3091712 -2.5380435 -2.3270364
3.4032774 -2.4960542 -2.2202332
3.4466743 -2.2881579 -1.9902124
3.5026994 -2.1031508 -1.7732079
3.5612588 -1.9089432 -1.5455899
3.6226678 -1.7052844 -1.3068955
3.6871271 -1.49142 -1.0562586
3.7550235 -1.2671878 -0.79325008
2.0323114 -1.3799058 -2.3510709
2.2312851 -1.5594952 -2.3778951
2.4164231 -1.7175117 -2.3943799
2.5764604 -1.8234472 -2.3800325
2.7297752 -1.9194872 -2.3612082
2.8780112 -2.0089622 -2.3398511
3.024874 -2.1014879 -2.3223109
3.1931777 -2.2638698 -2.3547711
3.3595576 -2.4339743 -2.3957953
3.4152894 -2.2685957 -2.2021227
3.4699345 -2.0845504 -1.9918065
3.5272293 -1.8921266 -1.7718008
3.587225 -1.6902473 -1.5410661
3.6501794 -1.4784083 -1.298948
3.7163067 -1.2558067 -1.0445477
3.7994313 -1.0798035 -0.82159507
2.3411832 -1.2805376 -2.2686484
2.5529246 -1.5114701 -2.3284688
2.7260771 -1.6558669 -2.337054
2.8912277 -1.7889383 -2.3410218
3.0404217 -1.8863683 -2.3239317
3.2350178 -2.1282988 -2.4058549
3.3944273 -2.2805412 -2.431277
3.4379578 -2.066833 -2.2065818
3.4938326 -1.8755144 -1.9934731
3.5524478 -1.675335 -1.7703872
3.6139293 -1.4654099 -1.5364308
3.6784368 -1.2447878 -1.2906284
3.7527366 -1.0401397 -1.0523964
2.8346853 -1.36134 -2.2143512
3.0263045 -1.575258 -2.2676516
3.2505527 -1.908388 -2.4030917
3.4232969 -2.1036022 -2.4532318
3.4611411 -1.859414 -2.2109606
3.5183754 -1.6607642 -1.9951692
3.5784135 -1.4526539 -1.7690461
3.641397 -1.2341459 -1.5316634
3.7114253 -1.020488 -1.2935793
3.444459 -1.8951726 -2.4576197
3.484951 -1.6463943 -2.2154579
3.5435834 -1.4400403 -1.9968824
3.605113 -1.2236764 -1.7676673
3.6766381 -1.0246322 -1.5462493
3.4392695 -1.5875319 -2.4032056
3.5271311 -1.4919219 -2.261281
3.5801187 -1.2536616 -2.0249577
3.6490736 -1.0543939 -1.8098879
0 0 0 1 0 0 0 1 0 0 0 1 0 0 0 0 0 580 1 0 0
