ply
format ascii 1.0
comment PCL generated
element vertex 607
property float x
property float y
property float z
element camera 1
property float view_px
property float view_py
property float view_pz
property float x_axisx
property float x_axisy
property float x_axisz
property float y_axisx
property float y_axisy
property float y_axisz
property float z_axisx
property float z_axisy
property float z_axisz
property float focal
property float scalex
property float scaley
property float centerx
property float centery
property int viewportx
property int viewporty
property float k1
property float k2
end_header
-1.306242 -2.7087517 1.7143511
-1.1567298 -2.7087176 1.7714646
-1.0091671 -2.6860592 1.8311106
-0.86284238 -2.6387873 1.8938491
-0.71698326 -2.5642469 1.9603597
-1.5096151 -3.0009129 1.4272518
-1.3439817 -3.1669724 1.4688694
-1.1952523 -3.2139058 1.5195606
-1.0521282 -3.2138433 1.5742373
-0.90963757 -3.2059793 1.629689
-0.76729602 -3.193049 1.6857444
-0.62505203 -3.1725566 1.7427483
-0.48249799 -3.1472728 1.8004953
-0.33959073 -3.1127059 1.8595873
-0.19587044 -3.0748169 1.919423
-0.051257446 -3.0250714 1.9811454
0.094635859 -2.9721487 2.0437708
0.24211438 -2.9067292 2.1086316
0.39178175 -2.8247762 2.1764832
0.5527162 -2.5386057 2.2752616
-1.5807018 -3.1371272 1.2172166
-1.41528 -3.3048635 1.2609649
-1.2630984 -3.3939776 1.3087664
-1.1200721 -3.4153109 1.3609252
-0.97949332 -3.415251 1.4146287
-0.83928585 -3.4103251 1.4687539
-0.69912761 -3.4026721 1.5231766
-0.55903351 -3.3900044 1.5781555
-0.41871619 -3.3748138 1.6335123
-0.27815956 -3.3540585 1.6896055
-0.13710047 -3.3316309 1.7460841
0.0045208782 -3.3025219 1.8035519
0.14689364 -3.2721467 1.8614533
0.29022312 -3.2340622 1.9206136
0.43456739 -3.1945887 1.9803225
0.58082861 -3.1366839 2.0428994
0.73001033 -3.0554726 2.1092927
0.88212889 -2.9625077 2.1781697
1.0375189 -2.8590403 2.2495131
1.2059771 -2.651494 2.3379092
-3.445204 -2.9826226 0.35558188
-3.3598905 -2.7707014 0.40965688
-3.3327363 -2.3269467 0.46502388
-1.6754035 -3.0988898 1.0197965
-1.496869 -3.3505149 1.0624769
-1.338025 -3.4931369 1.1086886
-1.1907901 -3.5627687 1.1578668
-1.0508478 -3.5753694 1.2100424
-0.91229439 -3.5752816 1.262974
-0.77401686 -3.5713191 1.3161931
-0.63573617 -3.5657091 1.3695805
-0.49750823 -3.555912 1.4233721
-0.359083 -3.5446243 1.4773903
-0.22046065 -3.5291722 1.5319062
-0.081486776 -3.5091052 1.5870242
0.058027104 -3.4811811 1.6431452
0.19827397 -3.4516153 1.6997128
0.33946639 -3.4153101 1.7573246
0.4816308 -3.3777344 1.8154366
0.62517756 -3.3322439 1.8748791
0.76997846 -3.2852066 1.9349575
0.91656905 -3.2306612 1.9964809
1.0648745 -3.1724939 2.0590265
1.2153372 -3.1077957 2.1230583
1.369954 -3.0217366 2.1908426
1.5318676 -2.8964479 2.2653918
1.6996655 -2.7521813 2.3441131
1.851707 -2.7324457 2.4041889
1.9827721 -2.8401966 2.443326
2.1129825 -2.9376259 2.4831829
-3.3409765 -3.1471457 0.21373183
-3.2455778 -2.9747612 0.26515305
-3.1526649 -2.7769523 0.31783444
-3.0631211 -2.54651 0.37206501
-1.7869947 -2.955797 0.82393032
-1.5887877 -3.3188002 0.86808974
-1.4235516 -3.4989109 0.91555065
-1.2720666 -3.600718 0.96456468
-1.1275852 -3.6602588 1.0145769
-0.98912138 -3.6708498 1.066545
-0.85177433 -3.6707635 1.1190144
-0.71469361 -3.6666675 1.1717305
-0.57758594 -3.6611545 1.22458
-0.44050759 -3.6515861 1.277771
-0.30323166 -3.6404939 1.3311698
-0.1657403 -3.6254268 1.3849963
-0.027873054 -3.60886 1.4390967
0.11045225 -3.5878239 1.4937606
0.24933971 -3.5654142 1.5487585
0.3889569 -3.538218 1.6044512
0.52931923 -3.5098188 1.6605332
0.67071837 -3.4760461 1.717478
0.81303877 -3.4413433 1.7748555
0.9567551 -3.4005227 1.8332982
1.1016431 -3.3582697 1.8923125
1.2497233 -3.2967248 1.9542232
1.4000323 -3.2296925 2.0174618
1.5529109 -3.1561978 2.0822439
1.7087063 -3.0755548 2.1487613
1.8631254 -3.0161653 2.2129056
1.9988977 -3.0730522 2.2598219
2.1307921 -3.1430585 2.3041167
-3.3819158 -3.3060958 0.021602929
-3.2551577 -3.2535872 0.073823214
-3.1534817 -3.1057224 0.12336922
-3.0449982 -2.969471 0.17467445
-2.926353 -2.8599062 0.22792804
-2.8057475 -2.7469563 0.28217572
-2.6753705 -2.6645527 0.33794349
-2.5335038 -2.6261568 0.39491254
-2.3836617 -2.6225884 0.45240575
-2.233057 -2.6225882 0.50993162
-2.0799201 -2.6369896 0.56738162
-1.8979943 -2.8300316 0.62288982
-1.6966609 -3.1844018 0.6741268
-1.5179139 -3.439961 0.72389299
-1.3573387 -3.6020327 0.77348912
-1.208155 -3.6993456 0.82342422
-1.0654933 -3.7560329 0.87381053
-0.92845851 -3.7647099 0.92552471
-0.79229742 -3.7646251 0.97753978
-0.65638775 -3.760458 1.0297545
-0.52043712 -3.754982 1.0820796
-0.38449085 -3.7456353 1.1346834
-0.24834667 -3.7346778 1.1874795
-0.11196944 -3.7199266 1.2406392
0.024782106 -3.7037599 1.2940445
0.16200303 -3.6832328 1.347945
0.29978251 -3.6611834 1.4021691
0.43829489 -3.6346636 1.4569968
0.5775488 -3.60676 1.512208
0.71782535 -3.5739317 1.5681665
0.85902202 -3.5399315 1.6245614
1.0015922 -3.5001903 1.6818967
1.1452856 -3.4592912 1.7397447
1.2907529 -3.4119573 1.7987366
1.4376827 -3.3625402 1.8584378
1.5866266 -3.3076665 1.9193037
1.737573 -3.2487664 1.9812257
1.8896742 -3.1918867 2.043443
2.0279677 -3.2206011 2.0941868
2.1605434 -3.275492 2.1408505
-3.2938612 -3.4198396 -0.11403054
-3.1802096 -3.3254647 -0.065151453
-3.0736184 -3.1963787 -0.01695776
-2.9575214 -3.0913463 0.033472836
-2.8330173 -3.0096152 0.085764825
-2.7041121 -2.9378552 0.13916004
-2.5676351 -2.8920784 0.19394195
-2.4236159 -2.8768618 0.24983406
-2.2762258 -2.8768611 0.30613208
-2.1288352 -2.8768611 0.36243033
-1.9775804 -2.8994575 0.41889513
-1.808295 -3.0395179 0.47544128
-1.6245857 -3.3028607 0.53035367
-1.4505631 -3.5434437 0.58288491
-1.2955769 -3.6764688 0.63437688
-1.1494788 -3.7582455 0.68544316
-1.0086664 -3.8061998 0.73645014
-0.87246478 -3.8129721 0.78808218
-0.73691541 -3.8128598 0.83986402
-0.60156405 -3.8092356 0.89177358
-0.46617013 -3.8045135 0.94376308
-0.33076751 -3.7963231 0.99595678
-0.19518171 -3.7869058 1.0482916
-0.059380203 -3.7741365 1.100903
0.076751664 -3.7600892 1.1537147
0.2133051 -3.7424784 1.2068939
0.35034692 -3.7234974 1.260339
0.48802948 -3.7008359 1.314242
0.62636089 -3.6768432 1.3684702
0.7655741 -3.6488657 1.4232658
0.90559506 -3.6196678 1.4784409
1.0467886 -3.5858629 1.5343307
1.1889318 -3.5511699 1.5906346
1.3326401 -3.5107384 1.6478689
1.4781976 -3.4640536 1.7061719
1.6259657 -3.4102645 1.765731
1.7756151 -3.3531728 1.8261999
1.927202 -3.2931762 1.8875771
2.0663185 -3.3096361 1.9397613
2.1976645 -3.363699 1.9867985
2.3424864 -3.3464797 2.0431132
-3.2234423 -3.477062 -0.25064898
-3.1113174 -3.3781903 -0.20352453
-3.0002005 -3.2661948 -0.15621489
-2.8809755 -3.1749215 -0.10670865
-2.7559862 -3.0979316 -0.055621386
-2.6239891 -3.0430024 -0.0028159618
-2.485605 -3.0111401 0.051426709
-2.3417406 -3.0021803 0.10676724
-2.1959338 -3.0021808 0.16246045
-2.0501277 -3.0021806 0.21815354
-1.9002863 -3.0264623 0.27433258
-1.7349504 -3.1556606 0.33187091
-1.5585927 -3.3862715 0.38921234
-1.3909881 -3.5940857 0.4442009
-1.2376696 -3.7237821 0.49712732
-1.0927442 -3.8038104 0.54900622
-0.9528392 -3.8506634 0.60040915
-0.81729066 -3.8566837 0.65192252
-0.6822927 -3.8565722 0.70349205
-0.54747838 -3.8529215 0.75514507
-0.41261315 -3.8482094 0.80686384
-0.2777226 -3.8400581 0.8587417
-0.14264303 -3.8307178 0.91074336
-0.007333234 -3.8180807 0.96297622
0.12830999 -3.8040905 1.0153953
0.26438791 -3.7866805 1.0681291
0.4009558 -3.7678819 1.1211102
0.53817397 -3.7454934 1.1744958
0.6760388 -3.7217834 1.2281858
0.81479341 -3.6941519 1.2823861
0.95435911 -3.6652246 1.3369526
1.095095 -3.6318765 1.392158
1.2368141 -3.5972707 1.4477937
1.3800635 -3.5574143 1.5042421
1.5244572 -3.5165539 1.5611712
1.6706957 -3.4702766 1.6190403
1.8184717 -3.4217401 1.6775949
1.9682056 -3.3690312 1.7370787
2.1083798 -3.3743274 1.7903904
2.2399859 -3.4217103 1.8386004
2.3750513 -3.4472327 1.8890817
-3.1576288 -3.5202003 -0.38696074
-3.0477343 -3.4134688 -0.3418926
-2.9358506 -3.3040318 -0.29598653
-2.8155951 -3.2170355 -0.24753273
-2.6882782 -3.1505346 -0.19697535
-2.5547681 -3.1041265 -0.14463472
-2.4157684 -3.078088 -0.090787113
-2.2722123 -3.0716085 -0.035765946
-2.127284 -3.0716076 0.019591749
-1.9823493 -3.0716403 0.074950963
-1.8333749 -3.0967176 0.13112766
-1.6710342 -3.21594 0.18968236
-1.4974527 -3.4399309 0.24949545
-1.3319889 -3.6440294 0.30678424
-1.180547 -3.7681367 0.36103445
-1.037101 -3.8427398 0.41366473
-0.89818215 -3.8864579 0.46546048
-0.76317871 -3.8916066 0.51687807
-0.62862051 -3.8915243 0.56827712
-0.49422485 -3.8879809 0.61971432
-0.3597703 -3.8835492 0.6711998
-0.22527801 -3.8758111 0.72279549
-0.090599976 -3.8670068 0.77449298
0.044309653 -3.8550396 0.82637054
0.17954187 -3.8418169 0.87840772
0.3151989 -3.8253973 0.93069977
0.45132637 -3.8076057 0.98321128
0.58807874 -3.7865682 1.0360556
0.72545356 -3.7641435 1.0891777
0.86367726 -3.738152 1.1427274
1.0027183 -3.7104044 1.1966403
1.1430149 -3.6773326 1.2511868
1.2842937 -3.6430151 1.3061447
1.4270643 -3.6038718 1.3618124
1.5709773 -3.5636504 1.4179474
1.716783 -3.5177696 1.4749694
1.8640628 -3.4700077 1.532609
2.0134401 -3.4173033 1.591193
2.1541619 -3.4164588 1.6449684
2.2850921 -3.4634256 1.6936187
2.4174528 -3.4983754 1.7431633
-3.1007683 -3.5331652 -0.52500558
-2.9901369 -3.4278607 -0.48122263
-2.8765283 -3.3237767 -0.4363203
-2.7550185 -3.2412012 -0.38871157
-2.6267998 -3.1785138 -0.33882838
-2.4926994 -3.1353824 -0.28698182
-2.3535504 -3.1113667 -0.23348373
-2.2101779 -3.1059451 -0.17864186
-2.0656834 -3.1059458 -0.1234498
-1.9211885 -3.1059458 -0.068257689
-1.7726578 -3.1317313 -0.011897564
-1.6116904 -3.248487 0.047895312
-1.4412102 -3.4602203 0.10994595
-1.2783892 -3.6525114 0.16935265
-1.1280901 -3.7724962 0.22502387
-0.98507607 -3.8469262 0.27857223
-0.84642822 -3.8905554 0.33089906
-0.71150696 -3.895618 0.38236105
-0.57699919 -3.895535 0.43373966
-0.44263804 -3.8919668 0.48511273
-0.308213 -3.8875375 0.53652269
-0.17373258 -3.8798339 0.58800125
-0.039063174 -3.8710351 0.63956779
0.095853582 -3.8590777 0.69127464
0.23109822 -3.8458657 0.74312484
0.36678261 -3.829458 0.79518938
0.50294447 -3.8116796 0.8474561
0.6397453 -3.7906575 0.90001386
0.77717787 -3.7682216 0.95283341
0.91547358 -3.7422502 1.0060339
1.0545592 -3.7148962 1.0595561
1.1947742 -3.6835198 1.1135679
1.3359246 -3.650979 1.167954
1.4785215 -3.6137855 1.2229599
1.6222084 -3.5755749 1.2783968
1.7677102 -3.5320408 1.3346043
1.9146142 -3.4867604 1.3913724
2.0635197 -3.4368329 1.4489726
2.2044442 -3.4337335 1.5028459
2.3354232 -3.4783452 1.5522292
2.4672375 -3.5141516 1.602059
-3.0465298 -3.5371544 -0.66367602
-2.9356277 -3.431144 -0.62131524
-2.8214879 -3.3273368 -0.57771766
-2.6995897 -3.2449064 -0.53115666
-2.5710557 -3.1824815 -0.48206109
-2.4367974 -3.1393483 -0.43077898
-2.2975273 -3.1156042 -0.37758255
-2.1541696 -3.1102509 -0.32282472
-2.0097294 -3.1102507 -0.26765347
-1.865289 -3.1102505 -0.21248221
-1.7168968 -3.1363029 -0.15580142
-1.5564599 -3.2537117 -0.094519973
-1.3871042 -3.4651613 -0.029831827
-1.2253162 -3.6570807 0.031965703
-1.0756791 -3.7768226 0.089121968
-0.93309134 -3.8511105 0.14358565
-0.79471397 -3.8946495 0.19644111
-0.65987498 -3.8996246 0.24794504
-0.52541846 -3.8995147 0.29930288
-0.39108908 -3.8959768 0.3506121
-0.25669318 -3.891552 0.40194678
-0.12222649 -3.8838539 0.45330849
0.012434712 -3.8750615 0.50474447
0.14735828 -3.8631134 0.55628073
0.28261536 -3.8499115 0.60794431
0.41832644 -3.8335438 0.65978134
0.55452293 -3.8157513 0.71180379
0.69137305 -3.7947445 0.76407588
0.82886326 -3.7722979 0.81659245
0.96723092 -3.746346 0.86944425
1.106389 -3.7190695 0.92259789
1.2466965 -3.687747 0.97619057
1.3879473 -3.6552303 1.0301435
1.5306622 -3.6180956 1.0846558
1.6744699 -3.5799446 1.1395855
1.8201357 -3.5363572 1.1952249
1.9671968 -3.4911108 1.2513973
2.1162593 -3.4413447 1.3083341
2.2572498 -3.4377055 1.3621876
2.3879776 -3.4822564 1.4121213
2.5194793 -3.5184515 1.4623504
-2.999001 -3.5167317 -0.80514753
-2.8870614 -3.4117455 -0.76391113
-2.773175 -3.3039081 -0.72197247
-2.6514144 -3.217943 -0.67670918
-2.5229313 -3.1524024 -0.6285826
-2.3886089 -3.1067748 -0.57793689
-2.2491748 -3.0811968 -0.52504826
-2.1055164 -3.0749774 -0.47026563
-1.9606302 -3.0749776 -0.41492409
-1.8157439 -3.0749767 -0.35958248
-1.6671815 -3.100008 -0.30247408
-1.5068454 -3.217474 -0.23952955
-1.3370285 -3.437345 -0.17148048
-1.1748766 -3.6378837 -0.10663903
-1.0250891 -3.7626693 -0.047617853
-0.88243604 -3.8398895 0.007989347
-0.74401027 -3.8850727 0.061517775
-0.60905385 -3.8903894 0.11314356
-0.47448051 -3.8902779 0.1645444
-0.34002125 -3.8866236 0.21585035
-0.20548871 -3.8820519 0.26717097
-0.070866913 -3.8740897 0.31847662
0.063961938 -3.8649764 0.36984465
0.19907753 -3.8526149 0.42127514
0.33454573 -3.8389399 0.4728213
0.47049862 -3.8220065 0.52450544
0.60695899 -3.8036413 0.57636261
0.74411249 -3.7819092 0.62843579
0.88193703 -3.7586713 0.68074352
1.0206859 -3.7318275 0.73335201
1.160264 -3.7035604 0.78625661
1.3010597 -3.671052 0.83956492
1.4428319 -3.6373613 0.89322907
1.5861633 -3.5987616 0.94741768
1.7306327 -3.5591207 1.0020258
1.877031 -3.5140038 1.0572915
2.024931 -3.4668965 1.113102
2.1749232 -3.4151595 1.1696446
2.3156278 -3.4145861 1.2233806
2.4460363 -3.4609389 1.2738636
2.5781953 -3.4947138 1.3248332
-2.955039 -3.482285 -0.94897938
-2.8405457 -3.3835998 -0.90810585
-2.7272873 -3.2695746 -0.86814833
-2.6071892 -3.1727138 -0.82508099
-2.4798667 -3.0977721 -0.77861929
-2.346139 -3.0448079 -0.72907412
-2.2068312 -3.013864 -0.67675972
-2.0627372 -3.0051684 -0.62197268
-1.9169683 -3.0051692 -0.56629395
-1.7711947 -3.0052013 -0.51061237
-1.6220347 -3.0290828 -0.45294648
-1.4604522 -3.153636 -0.38761914
-1.2883974 -3.3948562 -0.31491178
-1.1264291 -3.5977683 -0.24716699
-0.97648937 -3.7252665 -0.18620139
-0.83362961 -3.803838 -0.12935758
-0.69490558 -3.8499386 -0.075034142
-0.55950391 -3.8557639 -0.02314651
-0.42449164 -3.855653 0.028420329
-0.28957695 -3.8520026 0.079847366
-0.15458512 -3.8474011 0.13127637
-0.019487098 -3.8393867 0.18264708
0.11582399 -3.8302982 0.23406804
0.25144005 -3.8178272 0.28550747
0.38741833 -3.8040347 0.33704695
0.52390081 -3.7869625 0.38868403
0.66090006 -3.768477 0.44047758
0.79861939 -3.7465162 0.4924455
0.93701464 -3.7231541 0.544631
1.0763706 -3.6960182 0.59707403
1.2165711 -3.6674471 0.64979815
1.3580216 -3.6346059 0.70287609
1.5004444 -3.6007187 0.75629497
1.6444943 -3.5616508 0.81018531
1.7897106 -3.5214736 0.86448908
1.9368364 -3.4761653 0.91937351
2.0855367 -3.4285545 0.97479272
2.236304 -3.3766086 1.0308758
2.3764501 -3.380986 1.0845337
2.5069959 -3.4276199 1.1357487
2.6410356 -3.454555 1.1877277
-2.9187305 -3.4175453 -1.098049
-2.8010688 -3.326324 -1.0570703
-2.6893353 -3.2005532 -1.0198573
-2.5689089 -3.0992095 -0.97826231
-2.4435625 -3.0089335 -0.93430734
-2.3118031 -2.9392676 -0.88700712
-2.1732106 -2.8966136 -0.83592296
-2.0286281 -2.8820047 -0.78133237
-1.8812971 -2.8820381 -0.72505546
-1.7339721 -2.8820372 -0.66878223
-1.5837035 -2.9034908 -0.61045241
-1.418918 -3.04584 -0.54132414
-1.2446138 -3.3053875 -0.46346718
-1.0791545 -3.5419395 -0.38998783
-0.92754591 -3.6876605 -0.32574606
-0.78449517 -3.7675145 -0.26763546
-0.64548129 -3.8144877 -0.21249568
-0.50962973 -3.8209133 -0.16032571
-0.37417597 -3.8208294 -0.10859066
-0.23880349 -3.8171823 -0.057041407
-0.10334982 -3.8125231 -0.0055052042
0.032228008 -3.804513 0.045932829
0.16802463 -3.7953649 0.097405016
0.30414563 -3.7827842 0.14885199
0.44063675 -3.7689013 0.2003836
0.57765454 -3.7516606 0.25197053
0.7151956 -3.7330813 0.30369914
0.85348678 -3.7108908 0.35555738
0.99245596 -3.6874018 0.40761819
1.1325208 -3.6590457 0.45988595
1.273769 -3.6266472 0.51243013
1.4164884 -3.5891705 0.56531549
1.5602947 -3.5506983 0.61857283
1.7060283 -3.5060167 0.6722964
1.8531301 -3.4598908 0.72647977
2.0023816 -3.4082694 0.78124559
2.153574 -3.3533249 0.83660841
2.3068273 -3.2950897 0.89261526
2.4454517 -3.3111439 0.94626284
2.5753529 -3.3634551 0.99815381
2.7198877 -3.3498425 1.0527697
-2.8903983 -3.3195686 -1.2539665
-2.762933 -3.2613533 -1.208652
-2.6566246 -3.1062322 -1.1770337
-2.5407667 -2.9765885 -1.1402915
-2.4182122 -2.8633676 -1.10004
-2.2918799 -2.7548258 -1.0580742
-2.156512 -2.6806726 -1.0106649
-2.012851 -2.6442118 -0.95790386
-1.8634943 -2.6380267 -0.90121317
-1.7130851 -2.6380267 -0.8437618
-1.5601346 -2.657218 -0.78422809
-1.3892596 -2.8301659 -0.70893884
-1.2037463 -3.1806238 -0.61777329
-1.0350953 -3.446362 -0.53795719
-0.88217735 -3.6019158 -0.47053492
-0.737477 -3.6955297 -0.40984023
-0.59733421 -3.7503819 -0.35313225
-0.46061528 -3.7588136 -0.30042177
-0.32437629 -3.758728 -0.24838805
-0.18820742 -3.754755 -0.19660628
-0.051945671 -3.7494731 -0.1448651
0.084476039 -3.7402301 -0.093292117
0.22115228 -3.729888 -0.0416857
0.35821635 -3.7156105 0.0098409653
0.49571282 -3.6997182 0.061439097
0.63383311 -3.6799519 0.11305109
0.77254879 -3.6588147 0.16481107
0.91215795 -3.6333284 0.21666029
1.0525366 -3.6065261 0.26872718
1.1941127 -3.5748999 0.32097208
1.3366424 -3.5419974 0.37350717
1.4807494 -3.5034902 0.42632002
1.6259785 -3.4639635 0.47950238
1.7731508 -3.4184816 0.53308195
1.9218073 -3.3710406 0.58711487
2.0725894 -3.3185549 0.64166754
2.2259476 -3.2597077 0.69683552
2.383049 -3.190063 0.75280762
2.5188549 -3.2244773 0.80667478
2.6474981 -3.2857633 0.85936314
-2.7348289 -3.1522124 -1.3691471
-2.6308861 -2.977437 -1.3421025
-2.5256591 -2.7881522 -1.3156186
-2.4228733 -2.5633359 -1.2926403
-1.1723429 -2.9515386 -0.78686452
-0.9932943 -3.3152962 -0.69212842
-0.8363083 -3.5119257 -0.61792397
-0.69068581 -3.6092098 -0.55525529
-0.54958951 -3.6665237 -0.49721038
-0.41178894 -3.6765559 -0.44384867
-0.27450961 -3.6764688 -0.39141893
-0.1372817 -3.6724932 -0.33929044
4.5374036e-05 -3.6672454 -0.28721631
0.13755226 -3.6579185 -0.23536879
0.27532566 -3.6473031 -0.18351293
0.4135111 -3.6327763 -0.13178277
0.55213803 -3.6167557 -0.079992294
0.69142884 -3.5965705 -0.028249979
0.83132732 -3.5750754 0.023629844
0.97217315 -3.5489602 0.075536609
1.1137953 -3.5216818 0.12765577
1.256682 -3.4892936 0.17988795
1.4006642 -3.4547048 0.23237914
1.5476338 -3.4047904 0.28490138
1.6961358 -3.353081 0.33787906
1.8470653 -3.294503 0.39128649
2.0001771 -3.2319403 0.44523889
2.1559432 -3.1636891 0.49979299
2.3148236 -3.0885298 0.55503654
2.4717135 -3.0315711 0.61083794
2.6053185 -3.0838242 0.66565478
2.734313 -3.1498377 0.71970755
-2.7193654 -2.9851642 -1.5426648
-2.6178744 -2.7862315 -1.5211883
-2.5607724 -2.3533173 -1.5370021
-0.95638394 -3.1116219 -0.85827518
-0.79437727 -3.3553095 -0.77521503
-0.64514571 -3.4878628 -0.70669341
-0.50189567 -3.5642974 -0.64533365
-0.36267751 -3.5794165 -0.59084308
-0.22416966 -3.5793295 -0.53794539
-0.085703239 -3.5744014 -0.48548412
0.052895114 -3.5674715 -0.43314654
0.19174261 -3.55603 -0.3811059
0.33094686 -3.542263 -0.32913107
0.47070718 -3.523488 -0.2773791
0.61102968 -3.5031037 -0.22555238
0.75225025 -3.4770012 -0.1738795
0.89426452 -3.4492147 -0.12204981
1.0375558 -3.4151897 -0.070274472
1.1818062 -3.3802261 -0.018214464
1.3278328 -3.337667 0.033863753
1.4751383 -3.2935469 0.086294979
1.6245512 -3.2424784 0.13892713
1.7757524 -3.1882079 0.19196421
1.93039 -3.1216538 0.24524623
2.0930409 -3.0200529 0.29854316
2.2597361 -2.9108229 0.35272169
2.4344754 -2.775939 0.40774333
2.5931098 -2.7303362 0.46437293
2.7133245 -2.8558762 0.52120167
2.8389146 -2.9463582 0.57703674
-0.7554062 -3.1322703 -0.94490886
-0.60085005 -3.3223333 -0.86660194
-0.45563376 -3.4045486 -0.80279803
-0.31433195 -3.424334 -0.74681938
-0.17386322 -3.4242439 -0.69317424
-0.033412144 -3.4193566 -0.64002228
0.10717927 -3.4124713 -0.58701921
0.24805506 -3.4003711 -0.53443646
0.38929302 -3.386605 -0.481884
0.5311411 -3.3672028 -0.42967021
0.67443109 -3.331692 -0.37853903
0.81868464 -3.2952757 -0.32713163
0.96380687 -3.2594588 -0.2753315
1.1116496 -3.2049458 -0.22438812
1.2611536 -3.1478429 -0.17307258
1.4128336 -3.0847528 -0.12153304
1.5662121 -3.0208952 -0.069422603
1.7213113 -2.9563212 -0.016727507
1.8784986 -2.8888996 0.036476493
2.0618174 -2.6801577 0.085332394
-0.56155324 -3.0244884 -1.0485485
-0.41064805 -3.1690557 -0.97415519
-0.26593542 -3.210398 -0.91408896
-0.12276159 -3.2103357 -0.85940862
0.020418391 -3.2033765 -0.80552518
0.16383393 -3.1919489 -0.75206959
0.30808824 -3.1593597 -0.7007457
0.45418316 -3.1004546 -0.65176845
0.60171986 -3.0424864 -0.60213208
0.75091952 -2.981416 -0.55221963
0.90307724 -2.9018717 -0.50331843
1.0707353 -2.6710882 -0.46602213
-0.22042154 -2.745837 -1.1213307
-0.071374699 -2.7459381 -1.0643867
0.078283682 -2.6351917 -1.0216599
0 0 0 1 0 0 0 1 0 0 0 1 0 0 0 0 0 607 1 0 0
