ply
format ascii 1.0
comment PCL generated
element vertex 577
property float x
property float y
property float z
element camera 1
property float view_px
property float view_py
property float view_pz
property float x_axisx
property float x_axisy
property float x_axisz
property float y_axisx
property float y_axisy
property float y_axisz
property float z_axisx
property float z_axisy
property float z_axisz
property float focal
property float scalex
property float scaley
property float centerx
property float centery
property int viewportx
property int viewporty
property float k1
property float k2
end_header
1.0110331 -1.1283479 5.3588963
1.2553403 -1.3715742 5.3726144
1.4033377 -1.4393935 5.3199577
0.51673317 -0.87619328 5.3068237
0.70847267 -1.0019104 5.2704091
0.78846157 -0.93091202 5.157845
0.9882468 -1.0788598 5.1332769
1.4821069 -1.7931393 5.3474884
0.2704429 -0.87282598 5.2652779
0.34959877 -0.79995716 5.150177
0.51571274 -0.87442541 5.0931439
0.69170582 -0.96982646 5.0461111
0.87921512 -1.0906088 5.0115304
1.4944606 -2.0116992 5.3239045
0.18488926 -0.93896079 5.1630802
0.26600093 -0.87007272 5.0482302
0.42580223 -0.93138134 4.9864025
0.58851814 -1.0005276 4.9290557
0.75518584 -1.0798991 4.8774481
1.4961848 -2.2052505 5.2927165
1.4396026 -1.902909 5.0803876
-0.030720711 -0.99618196 5.1433144
0.034210205 -0.90353346 5.0178804
0.18250853 -0.9419663 4.9460044
0.33195627 -0.98399377 4.8764019
0.47967917 -1.0249918 4.8071351
0.63679039 -1.0841382 4.7468066
1.4820224 -2.366008 5.2493811
1.4425902 -2.1035109 5.0519595
-0.23427057 -1.0754039 5.1320601
-0.18290901 -0.96544242 4.9986944
-0.042272568 -0.98939872 4.920392
0.10100448 -1.0185599 4.8448167
0.23636961 -1.0361807 4.7646503
0.375328 -1.0605325 4.6878839
0.51259112 -1.0831231 4.6107616
1.4531574 -2.4981275 5.1945086
1.38182 -2.1861444 4.9696078
1.2885544 -1.8190883 4.7116075
-0.38789248 -1.0488107 4.9881167
-0.24499285 -1.0746286 4.9104981
-0.10992265 -1.0896295 4.8286009
0.017054915 -1.0927244 4.741622
0.14562929 -1.0984795 4.6559286
0.27033305 -1.0982262 4.5675201
1.3225572 -2.6321912 5.2153769
1.3995588 -2.5865028 5.1194715
1.3275049 -2.2804909 4.8927517
1.2962995 -2.0321722 4.689497
1.2607574 -1.7636931 4.4710159
1.3262713 -0.6985569 3.4582062
1.5504446 -0.89890814 3.4814868
1.7208406 -0.99303281 3.4464056
1.8547274 -1.0102365 3.3673434
1.9618876 -0.96604991 3.2514758
-0.47471809 -1.2994597 5.0487537
-0.43418133 -1.1810284 4.9096184
-0.30317664 -1.1894547 4.8248439
-0.18075621 -1.1854824 4.7345743
-0.058444738 -1.1811793 4.6440725
0.057152033 -1.1663015 4.5484562
0.16982388 -1.1461508 4.4499884
1.2904907 -2.7544804 5.1577978
1.2987907 -2.596998 5.0050302
1.2607679 -2.353817 4.8050785
1.2571634 -2.1586556 4.6255817
1.274019 -1.9902666 4.4565907
1.2883388 -1.8088362 4.2772279
1.27984 -1.5755215 4.0656033
1.1294883 -1.0583187 3.6894741
1.3280305 -1.199195 3.6804922
1.4847643 -1.2634099 3.6295638
1.6350603 -1.3179144 3.5741301
1.7741132 -1.3515675 3.5071962
1.906794 -1.3732119 3.4335666
2.0265694 -1.3668621 3.3429494
2.1290188 -1.3194283 3.2262607
2.2061234 -1.2073376 3.0671823
-0.61198306 -1.3031764 4.9156814
-0.48182964 -1.3103383 4.8305159
-0.35643816 -1.3110068 4.7424917
-0.24016678 -1.2984616 4.6482468
-0.13172865 -1.2737907 4.5479145
-0.026262641 -1.2435834 4.444376
1.1365416 -2.8463073 5.1588726
1.2297213 -2.8299623 5.0773125
1.1955961 -2.607264 4.8879151
1.1896093 -2.4208088 4.7133718
1.2098935 -2.2700002 4.55443
1.241755 -2.1319673 4.3995519
1.2849501 -2.0072253 4.2494035
1.3228782 -1.8665742 4.0877247
1.3500478 -1.6985192 3.9073789
1.4083469 -1.581166 3.7536345
1.524442 -1.5712105 3.6619973
1.6581304 -1.596324 3.5915446
1.789898 -1.6188922 3.5200098
1.9172126 -1.6332521 3.4437532
2.0374904 -1.6329296 3.3583946
2.1456511 -1.6049254 3.2550626
2.2410188 -1.5449185 3.1300919
2.3077948 -1.411136 2.9546006
-0.66608334 -1.5868702 4.9942064
-0.64017487 -1.4574193 4.8483148
-0.51533973 -1.4580498 4.760664
-0.40159988 -1.4432596 4.6656628
-0.29737747 -1.4143624 4.5634885
-0.19623172 -1.3798262 4.4579329
-0.09954536 -1.3372535 4.347611
1.0967364 -2.9540317 5.0950155
1.1145117 -2.8220589 4.9523902
1.093642 -2.6232352 4.7712107
1.1142662 -2.4823284 4.6177664
1.1501079 -2.3599906 4.4718604
1.1963665 -2.2494326 4.3301978
1.255087 -2.1550591 4.195673
1.3055055 -2.0412221 4.0478373
1.3578705 -1.9250846 3.8963585
1.4240655 -1.8286736 3.7545404
1.5295535 -1.8024704 3.6541264
1.6558145 -1.8157928 3.5779753
1.7821839 -1.8300972 3.5027153
1.9081262 -1.844353 3.4277091
2.028198 -1.8468355 3.3452523
2.1369739 -1.824399 3.2462254
2.2335651 -1.7725885 3.1268668
2.3145564 -1.6803746 2.9787226
2.3584595 -1.4909245 2.7609789
2.3255439 -1.0929816 2.3920884
-0.67620897 -1.7588136 4.9380398
-0.66111982 -1.6191883 4.7859578
-0.54528475 -1.6088142 4.6935434
-0.44011748 -1.5835102 4.5935507
-0.34005761 -1.5501094 4.4889693
-0.24884892 -1.5028176 4.3765779
0.93058693 -3.0272145 5.0865016
1.0127656 -2.9957254 4.9965005
0.98184669 -2.7922933 4.8123274
0.99843961 -2.6531491 4.6596689
1.0306962 -2.532433 4.5145988
1.0800815 -2.4337802 4.3797622
1.1427428 -2.3523905 4.2530222
1.2040234 -2.2647398 4.1209178
1.2675828 -2.1767025 3.9868102
1.3281634 -2.0789113 3.8449304
1.4082689 -2.0116119 3.7201262
1.516058 -1.9925082 3.6245594
1.640138 -2.0036697 3.548126
1.7643099 -2.0156419 3.4724488
1.8881118 -2.0275576 3.3969758
2.0065722 -2.0289965 3.3146694
2.115813 -2.0106199 3.2188122
2.2159586 -1.9708126 3.1076818
2.3059356 -1.9049944 2.9773974
2.3583522 -1.7453506 2.778646
2.3943784 -1.5341209 2.539238
2.3805552 -1.1802702 2.1906321
-0.68508315 -1.9295228 4.8833904
-0.6691469 -1.7952006 4.7323189
-0.55744898 -1.7809469 4.6385012
-0.45794511 -1.7499028 4.5358305
-0.36929691 -1.702897 4.4242229
0.74424016 -3.0737839 5.0636597
0.86734629 -3.1006124 5.0045333
0.85439545 -2.9322195 4.8384266
0.85536516 -2.777169 4.6763639
0.88916194 -2.6648042 4.5355158
0.94189882 -2.5765958 4.4064178
1.0055361 -2.5015354 4.2832961
1.0726998 -2.4286606 4.159956
1.1450214 -2.3608201 4.038208
1.2149476 -2.2856178 3.9104919
1.2842684 -2.2056026 3.7781944
1.3775611 -2.1640658 3.6689947
1.4920652 -2.1590152 3.5827713
1.6170795 -2.1733727 3.5093162
1.7405881 -2.1856308 3.4347408
1.8631852 -2.1967869 3.3596628
1.9798436 -2.1964951 3.2768693
2.0870767 -2.1763935 3.1801221
2.185226 -2.1353598 3.0680118
2.2734022 -2.0693774 2.9369869
2.3399725 -1.9490713 2.7646995
2.3948996 -1.7926253 2.5630305
2.4269309 -1.5683018 2.3069041
2.4268456 -1.2448716 1.9703364
-0.7766794 -1.9954944 4.7789712
-0.65637136 -1.9943404 4.6926665
-0.55006099 -1.9752493 4.5970755
-0.45787704 -1.9370261 4.4910111
-0.37956786 -1.8788909 4.3734612
0.68519181 -3.1545005 4.9848514
0.69786948 -3.0279453 4.8405337
0.6899991 -2.8671865 4.6741643
0.72364795 -2.7594411 4.5351353
0.78010243 -2.6806035 4.4108977
0.84531462 -2.6114643 4.2908397
0.91810381 -2.5508614 4.1745539
0.99798661 -2.4986238 4.0621996
1.074749 -2.4389026 3.9440472
1.1479778 -2.3704753 3.8190823
1.2342404 -2.3206818 3.7048302
1.3375555 -2.2978985 3.6074085
1.4573231 -2.3031693 3.528357
1.581748 -2.3172185 3.4554014
1.7057356 -2.3312182 3.3827019
1.8286318 -2.3439054 3.3093703
1.9444016 -2.3431928 3.2267466
2.0527072 -2.3271914 3.133049
2.1534362 -2.2942502 3.0265918
2.2410929 -2.2308128 2.8967614
2.3051085 -2.1101573 2.7224522
2.365108 -1.9719917 2.5322554
2.4247088 -1.823155 2.3309276
2.4552352 -1.5911014 2.0611565
2.4637442 -1.2846212 1.7273537
-0.74294472 -2.2142446 4.7515593
-0.61946607 -2.2190783 4.6695585
-0.51299083 -2.2028289 4.5764117
0.31680685 -3.1075511 4.9839187
0.48671627 -3.1901555 4.9545546
0.51891518 -3.0936582 4.8257389
0.48924369 -2.909734 4.6445928
0.52409697 -2.8072238 4.5072918
0.58716065 -2.7401288 4.3889637
0.65721786 -2.6802249 4.2735929
0.73723251 -2.632333 4.1643825
0.8264432 -2.5961123 4.0614958
0.91026407 -2.5499699 3.9515162
0.99187952 -2.498215 3.8369281
1.0782926 -2.4517078 3.7247148
1.1760924 -2.4216881 3.6225693
1.2903665 -2.4179857 3.5376964
1.4177425 -2.4367871 3.4682901
1.5451319 -2.4566026 3.3999887
1.6701744 -2.4732051 3.3298161
1.790987 -2.4827943 3.2549269
1.9039363 -2.4777536 3.1695204
2.0091593 -2.457063 3.0723782
2.1071124 -2.4202321 2.9626384
2.197053 -2.3641753 2.8374364
2.2692959 -2.2659218 2.6783752
2.3294473 -2.1338699 2.4907205
2.3876963 -1.9882611 2.2895126
2.4443078 -1.8282828 2.0736709
2.4782782 -1.5997543 1.7985044
2.4829617 -1.2774756 1.441018
-0.43488431 -2.7517233 4.8969488
-0.191118 -2.9087484 4.9018908
0.090548158 -3.1178961 4.9388895
0.25938231 -3.1942835 4.9057612
0.24660921 -3.0429902 4.7439551
0.19332093 -2.8333735 4.544939
0.243581 -2.7521372 4.4176688
0.32655072 -2.7116678 4.313303
0.42467761 -2.6903622 4.2198586
0.51857495 -2.6622226 4.1216884
0.6215595 -2.6458998 4.0304356
0.71764767 -2.6187537 3.931838
0.80939001 -2.5838749 3.8275819
0.90276051 -2.5498867 3.7231798
1.0011511 -2.522172 3.6223121
1.115584 -2.5188956 3.5376964
1.2449123 -2.5399814 3.470057
1.3726965 -2.5595291 3.401773
1.4998373 -2.5789788 3.3338335
1.6261294 -2.5979588 3.2659633
1.7473705 -2.6087513 3.1924195
1.8615756 -2.606935 3.1096134
1.9653445 -2.5848382 3.0112863
2.0603213 -2.5439153 2.8979177
2.1431551 -2.4755492 2.7621474
2.2145009 -2.3785105 2.6021235
2.2857699 -2.2749271 2.4347639
2.351192 -2.1510901 2.2486684
2.4067369 -1.9954249 2.0336168
2.4600742 -1.8230631 1.8012731
2.4945545 -1.5901887 1.5139332
2.467556 -1.1781404 1.0677441
-0.23160064 -3.022037 4.8333788
0.21567476 -2.5848932 4.0099325
0.35569072 -2.6163726 3.9474487
0.48283392 -2.6311703 3.8747134
0.58922446 -2.6169257 3.7829573
0.69672918 -2.6036768 3.6915686
0.80492651 -2.5908601 3.6001916
0.9261179 -2.5973334 3.5220068
1.0564547 -2.6184449 3.4543383
1.1906815 -2.6468315 3.3923597
1.3240583 -2.6752415 3.3310094
1.4547877 -2.7006419 3.2680392
1.5794134 -2.7168088 3.1986723
1.6970079 -2.7213435 3.1207819
1.8077259 -2.7135572 3.0334587
1.9118325 -2.6928906 2.9358668
2.0095932 -2.6587205 2.8270953
2.0892427 -2.5863464 2.6868062
2.1598423 -2.4908237 2.5260592
2.2295074 -2.3871439 2.356509
2.2995911 -2.2774596 2.179697
2.3696609 -2.1601658 1.9940658
2.421617 -1.9918803 1.7620823
2.4714031 -1.8058144 1.5110044
2.5016675 -1.5559593 1.1997223
0.018975139 -2.3445642 3.6175475
0.29151464 -2.5499182 3.6696234
0.43397874 -2.582469 3.6076882
0.57474327 -2.6140265 3.5457706
0.71273804 -2.6429625 3.4826863
0.85274422 -2.6762331 3.423347
0.99674356 -2.7171726 3.3703256
1.1363037 -2.7531409 3.3145175
1.2697935 -2.7811532 3.2535176
1.401912 -2.8083301 3.192492
1.5286846 -2.827903 3.1261821
1.6452017 -2.8307576 3.0471947
1.7523336 -2.8170676 2.9551218
1.8528748 -2.7905457 2.8524134
1.9462287 -2.748951 2.7368195
2.024632 -2.6758785 2.5942745
2.1039498 -2.6001287 2.4478917
2.1733503 -2.4991086 2.2783976
2.241785 -2.3893967 2.0992258
2.3102856 -2.2723775 1.911297
2.378408 -2.1462717 1.7128037
2.4320245 -1.9766995 1.472754
2.4768414 -1.772725 1.1979177
2.4956665 -1.4864764 0.84338593
0.027257562 -2.3799202 3.3955126
0.28036267 -2.556695 3.4330444
0.46114725 -2.6404357 3.4077713
0.62651968 -2.7059584 3.371084
0.7859478 -2.7658072 3.3316507
0.93283713 -2.8097587 3.2816138
1.0762076 -2.8504369 3.2300558
1.2155995 -2.8868842 3.1761298
1.345322 -2.9096653 3.1123033
1.467851 -2.9217975 3.0405207
1.5840369 -2.9238715 2.9609048
1.6942642 -2.9157367 2.8729994
1.7921644 -2.8852043 2.7663794
1.8761057 -2.8273644 2.6361847
1.9540737 -2.7548559 2.4922485
2.0317659 -2.6774113 2.3424621
2.1103213 -2.596848 2.1882453
2.1840754 -2.5011497 2.0188875
2.2507558 -2.3839474 1.8281941
2.3171878 -2.2580967 1.627085
2.382843 -2.1214638 1.4133191
2.436656 -1.9465687 1.1610658
2.4744759 -1.7187524 0.85530627
2.4696755 -1.3633487 0.42342186
2.3019056 -0.54278219 -0.46293163
-0.12026131 -2.3749952 3.2282159
0.15723991 -2.5776439 3.2869949
0.36755645 -2.6977024 3.2893536
0.55111825 -2.7858794 3.2705128
0.71194786 -2.8457375 3.2321115
0.86878777 -2.9025533 3.1927028
1.0126677 -2.9427714 3.1415725
1.152992 -2.9795141 3.0885832
1.2853528 -3.0056448 3.0278716
1.4038649 -3.0109372 2.9507306
1.5161128 -3.0062194 2.8654225
1.6223276 -2.9910786 2.771265
1.7212422 -2.9624634 2.665314
1.8055861 -2.9062853 2.5349822
1.8825915 -2.8333964 2.3888121
1.9590886 -2.7551901 2.2363098
2.0334816 -2.6680706 2.0740798
2.1070004 -2.5736554 1.9032869
2.1827464 -2.4776571 1.7289275
2.2505841 -2.3581862 1.5306234
2.3194084 -2.2325058 1.323808
2.3816805 -2.0825982 1.0911397
2.4330792 -1.8954037 0.81923997
2.4607892 -1.6347347 0.47163439
2.3797967 -1.07206 -0.17913437
2.4678268 -0.91644335 -0.43720055
-0.25894213 -2.3866329 3.0683603
0.055918097 -2.6309133 3.1615458
0.2795918 -2.7646635 3.1763072
0.4655993 -2.8531933 3.1592388
0.63741666 -2.9260049 3.131882
0.79676801 -2.9844685 3.09479
0.94717324 -3.0326848 3.0507755
1.0830061 -3.0615692 2.9920712
1.2123617 -3.0820155 2.9270375
1.3358545 -3.094348 2.8556592
1.4449028 -3.0842209 2.7654576
1.5463383 -3.06107 2.6638002
1.633812 -3.0131378 2.5399766
1.7191634 -2.9588637 2.4094541
1.8030248 -2.8988276 2.2725358
1.8784432 -2.8197713 2.1169965
1.9493996 -2.7274842 1.9475067
2.0226347 -2.6338601 1.7746769
2.0977819 -2.5380342 1.5976484
2.1748374 -2.4397755 1.4161252
2.2491026 -2.3287287 1.2200415
2.3158617 -2.1930122 0.9973706
2.3733616 -2.0258327 0.74056876
2.4185734 -1.8162822 0.4376756
2.4326985 -1.5123527 0.034743547
2.4658892 -1.2326124 -0.35039663
-0.4088968 -2.3888946 2.8971477
-0.057016253 -2.6719887 3.0243902
0.1802749 -2.8187342 3.0515349
0.37937415 -2.921313 3.0470152
0.56206119 -3.0062332 3.030643
0.71963143 -3.0602789 2.9910178
0.87028217 -3.1070337 2.9466002
1.0077095 -3.1368651 2.8890522
1.1325641 -3.1495113 2.8175659
1.2513144 -3.1535163 2.7389166
1.3640114 -3.1483037 2.6523035
1.4612331 -3.1181068 2.5434439
1.5452155 -3.06459 2.4129684
1.6237117 -2.9988964 2.2701964
1.7013613 -2.9280295 2.1211512
1.7802265 -2.8552146 1.9686584
1.8606584 -2.7809224 1.8130956
1.9369241 -2.6941681 1.6439245
2.0116401 -2.5988722 1.4645017
2.0882144 -2.5010629 1.2804269
2.1666248 -2.4004407 1.0913167
2.2467186 -2.2963772 0.89644516
2.3049359 -2.1357994 0.64196944
2.3562143 -1.9469706 0.35487223
2.3895121 -1.699922 0.0031504631
2.437726 -1.4701245 -0.33620262
2.5512271 -1.3916742 -0.52067232
-0.18380761 -2.6990848 2.8731823
0.076184273 -2.8692386 2.9215856
0.28850853 -2.9851797 2.9296997
0.46848643 -3.0635533 2.9094093
0.63378441 -3.1256444 2.877275
0.7793802 -3.163424 2.8258891
0.91965336 -3.1954613 2.7704291
1.0464861 -3.20963 2.700084
1.1600428 -3.2048652 2.6132836
1.2620105 -3.1823025 2.5103853
1.3547277 -3.1442032 2.3928223
1.4390041 -3.0906322 2.2601099
1.5203203 -3.0293117 2.1189137
1.5971735 -2.9570649 1.9659593
1.6757001 -2.8835828 1.8101358
1.7561506 -2.8092017 1.6517251
1.8382361 -2.7333097 1.4900957
1.9219953 -2.655838 1.3251266
1.9989026 -2.5599589 1.1398785
2.076864 -2.4598074 0.948053
2.1568632 -2.3569996 0.75116146
2.2314734 -2.235162 0.53210628
2.2846112 -2.0560532 0.25006354
2.3261678 -1.8361217 -0.079508781
2.3932171 -1.6604153 -0.36674404
2.5067201 -1.5874491 -0.54659534
-0.38509321 -2.6401844 2.6480119
-0.05355072 -2.8908384 2.7651181
0.17260146 -3.019527 2.7856898
0.35849738 -3.1020434 2.7699709
0.52885377 -3.1677895 2.7417197
0.67841077 -3.2085733 2.6931663
0.81311262 -3.2308335 2.6291375
0.94185102 -3.2457602 2.5590405
1.055988 -3.2403879 2.470799
1.1416239 -3.1927066 2.3433721
1.2249473 -3.1391106 2.2092853
1.309603 -3.0847936 2.073245
1.3953848 -3.029371 1.9348581
1.4825227 -2.9731271 1.7943602
1.5688515 -2.9123483 1.648074
1.6489084 -2.837178 1.486039
1.7306169 -2.7604589 1.3206639
1.8139687 -2.682034 1.1517344
1.8996651 -2.6030693 0.98038983
1.9856369 -2.5194578 0.80233383
2.0649784 -2.4167347 0.60216165
2.1393831 -2.2964363 0.38083148
2.2015541 -2.1407804 0.11856222
2.2488561 -1.9398119 -0.19674325
2.3371322 -1.819116 -0.42844009
2.4557281 -1.7625419 -0.59164524
-0.31387615 -2.7597103 2.4743497
0.0069277287 -2.9963133 2.5884979
0.22863567 -3.1188812 2.6083703
0.39436197 -3.1751423 2.5722673
0.55443358 -3.2265098 2.5331101
0.68614554 -3.2422705 2.4626899
0.78418839 -3.2126682 2.3507006
0.88284409 -3.1825135 2.2374816
0.98235738 -3.1521182 2.1233096
1.0827277 -3.1214623 2.0081558
1.1744909 -3.0762382 1.8780931
1.2606828 -3.0199978 1.736093
1.3488626 -2.963877 1.5928596
1.4384043 -2.9068615 1.4473741
1.5293037 -2.8488684 1.2995188
1.6204146 -2.7878249 1.1471183
1.7035216 -2.7087927 0.9744525
1.7888308 -2.6288662 0.79894042
1.8764112 -2.548089 0.62059641
1.9658604 -2.4655881 0.4384464
2.0453258 -2.3571093 0.22591734
2.1033659 -2.1957901 -0.047615528
2.1609306 -2.0214634 -0.33955789
2.2774026 -1.9671884 -0.50013709
-0.017505407 -2.9981248 2.3182495
0.21487725 -3.1312323 2.3510675
0.34812111 -3.1438196 2.2754924
0.46083885 -3.1302187 2.1756456
0.57366431 -3.1161358 2.0750084
0.68640226 -3.1012697 1.9732735
0.79244047 -3.0763221 1.8613447
0.89459538 -3.044579 1.7420974
0.99788791 -3.0128968 1.6221359
1.1021838 -2.9810784 1.5012633
1.2073973 -2.9489803 1.3793275
1.2987281 -2.893055 1.2319193
1.3898716 -2.8336694 1.0795183
1.4826219 -2.7735364 0.92487478
1.5779276 -2.7142355 0.76965678
1.674777 -2.6540356 0.61201489
1.7624239 -2.5730548 0.4301033
1.851491 -2.4894567 0.24331093
1.9303403 -2.3800819 0.02556777
1.9973806 -2.2389674 -0.23083329
2.0819163 -2.1244991 -0.46014166
2.2044158 -2.0845311 -0.60595608
0.083615422 -2.8364589 1.7017338
0.28324765 -2.9263523 1.6973989
0.44274145 -2.9670956 1.6466353
0.55960417 -2.9517839 1.5406948
0.67698717 -2.9364498 1.4343524
0.79404104 -2.9198775 1.3263584
0.90686113 -2.8962505 1.2106196
1.0140142 -2.8628564 1.0840218
1.1221554 -2.8291807 0.95629704
1.2318699 -2.7961299 0.82841027
1.3386743 -2.7564352 0.692469
1.4344103 -2.6957958 0.53247452
1.5318592 -2.6344428 0.37018239
1.6308979 -2.5720892 0.20524287
1.7315661 -2.5087104 0.037590742
1.8040735 -2.3874388 -0.19826674
1.8756596 -2.2559714 -0.44899249
2.0012991 -2.2254701 -0.58425903
2.131098 -2.2015128 -0.71250629
0.33669782 -2.6736696 0.95311046
0.53416747 -2.7600374 0.94859385
0.66683495 -2.7584591 0.85231471
0.78846824 -2.740669 0.73847616
0.91066456 -2.7227736 0.62407386
1.0308799 -2.7008419 0.50475872
1.1439464 -2.6663387 0.37083077
1.2580059 -2.6314516 0.23560023
1.3731141 -2.5962415 0.099123478
1.4801946 -2.5449572 -0.056824684
1.5737642 -2.4662652 -0.2460959
1.6505151 -2.3513608 -0.48012614
1.782594 -2.3342471 -0.60029268
1.9149425 -2.3164618 -0.72170138
0.61115634 -2.5004742 0.14856839
0.78475714 -2.5499594 0.1053896
0.91200858 -2.5308504 -0.015319347
1.0387486 -2.5098383 -0.13872671
1.1654047 -2.487452 -0.26428533
1.2723765 -2.4306474 -0.43127179
1.3905121 -2.3896227 -0.58077669
1.5415802 -2.4048307 -0.66314197
1.6810253 -2.3995781 -0.77019143
0.6558311 -2.1508856 -0.81124449
0.89753151 -2.2971306 -0.74039364
1.0892863 -2.3707843 -0.75422668
1.2658713 -2.423512 -0.79192686
1.4209512 -2.4423444 -0.87045312
0 0 0 1 0 0 0 1 0 0 0 1 0 0 0 0 0 577 1 0 0
