ply
format ascii 1.0
comment PCL generated
element vertex 580
property float x
property float y
property float z
element camera 1
property float view_px
property float view_py
property float view_pz
property float x_axisx
property float x_axisy
property float x_axisz
property float y_axisx
property float y_axisy
property float y_axisz
property float z_axisx
property float z_axisy
property float z_axisz
property float focal
property float scalex
property float scaley
property float centerx
property float centery
property int viewportx
property int viewporty
property float k1
property float k2
end_header
-3.8290067 1.0372734 -1.8824341
-3.7600055 1.2502383 -2.1040356
-3.7063475 1.5020382 -2.3463004
-3.9445701 0.83343339 -1.4165092
-3.8565764 0.99550128 -1.6139945
-3.7872219 1.2185547 -1.8491989
-3.7215352 1.432801 -2.0744596
-3.6696448 1.6782143 -2.3159766
-3.5854869 1.7829528 -2.4629016
-3.9854283 0.83771515 -1.1674544
-3.8959312 1.0022008 -1.3719183
-3.8252935 1.2291706 -1.6166775
-3.7580013 1.4451838 -1.8496666
-3.6939149 1.6513882 -2.0719705
-3.6355901 1.8586298 -2.29109
-3.5637546 1.999146 -2.4624922
-3.3426318 1.6267037 -2.2991781
-3.1675344 1.4337335 -2.2573619
-2.9550135 1.1413571 -2.156687
-3.9364119 1.0102978 -1.1254824
-3.8641424 1.2399337 -1.3792522
-3.7952452 1.4579575 -1.6203892
-3.7295761 1.6656454 -1.8501215
-3.6670356 1.8641781 -2.0695615
-3.609304 2.0608339 -2.2839446
-3.5301743 2.1670504 -2.4336405
-3.3467436 1.9259264 -2.3505392
-3.1808777 1.7594972 -2.3209395
-3.0296588 1.6500783 -2.3312988
-2.8646698 1.509619 -2.3239999
-2.6920471 1.3585109 -2.3127003
-2.4421692 1.0125941 -2.1840982
-3.9797745 1.0280977 -0.88091528
-3.9037013 1.250434 -1.1364509
-3.8332272 1.4708774 -1.3863101
-3.7660117 1.6804123 -1.6239668
-3.7019196 1.8802094 -1.850579
-3.640851 2.0713377 -2.0671871
-3.5980515 2.3072648 -2.3115273
-3.4858871 2.2950025 -2.3797131
-3.3169942 2.1059194 -2.3275676
-3.1622128 1.974739 -2.3179836
-3.019043 1.8874128 -2.3399816
-2.8713126 1.7940123 -2.3596931
-2.7193971 1.6962072 -2.3783669
-2.5522003 1.5657835 -2.3782487
-2.36696 1.3991706 -2.3580523
-2.1693072 1.2135302 -2.3293667
-4.0311475 1.0809945 -0.65884274
-3.9442334 1.2617286 -0.88888824
-3.8719444 1.4838307 -1.1471801
-3.8031693 1.6954117 -1.3931727
-3.7375703 1.8968379 -1.6274474
-3.6749902 2.0890687 -1.8510098
-3.6152954 2.2729533 -2.0647476
-3.5722175 2.4950898 -2.3024154
-3.4362855 2.4038959 -2.3134685
-3.2734923 2.2388258 -2.2746048
-3.1298366 2.1427193 -2.2865367
-2.9943857 2.0769932 -2.3210061
-2.8555946 2.0071385 -2.3539863
-2.7069654 1.9167088 -2.3747306
-2.5512702 1.8147898 -2.3897543
-2.3908393 1.7081891 -2.4037595
-2.2233267 1.5918504 -2.4136889
-2.025074 1.4128873 -2.3869386
-1.8074301 1.2020274 -2.3441472
-3.9855738 1.2729666 -0.63575232
-3.9115214 1.497247 -0.9031598
-3.8410735 1.7106509 -1.1575899
-3.7739348 1.9137994 -1.3998468
-3.7098894 2.1074767 -1.6308355
-3.6487703 2.2924864 -1.8514441
-3.5903859 2.4693987 -2.062355
-3.5272779 2.6154449 -2.2470109
-3.3786621 2.4872503 -2.2291832
-3.2265158 2.3591762 -2.2139664
-3.0938287 2.2960587 -2.247272
-2.9591198 2.2322264 -2.281322
-2.8207598 2.1634946 -2.3132563
-2.6796796 2.0927322 -2.3451664
-2.5344467 2.0166509 -2.3749132
-2.3834801 1.9320486 -2.4005442
-2.2184725 1.8207726 -2.4105287
-2.04742 1.7029821 -2.418541
-1.8688008 1.5759929 -2.4230843
-1.6606634 1.3948624 -2.3965878
-1.4160695 1.1501169 -2.3348753
-4.0386839 1.3360072 -0.42021263
-3.9519348 1.5109243 -0.65393126
-3.8797364 1.7260921 -0.91702652
-3.8110571 1.9311908 -1.167711
-3.7454953 2.1263108 -1.4063575
-3.6829557 2.3126166 -1.6341803
-3.623239 2.4906921 -1.8518968
-3.5865879 2.7270746 -2.1107633
-3.466876 2.6861587 -2.1550903
-3.3209014 2.5708852 -2.1447103
-3.1753869 2.4661574 -2.1443977
-3.0468225 2.4158316 -2.1857109
-2.9173331 2.3668039 -2.2289577
-2.784903 2.3138225 -2.2703881
-2.6459203 2.2484479 -2.3042381
-2.5011487 2.1737301 -2.3329742
-2.3535123 2.0972748 -2.3620238
-2.2009661 2.0147057 -2.3885198
-2.0446329 1.9289969 -2.4145999
-1.8696111 1.8092933 -2.420393
-1.6852993 1.6775866 -2.4209268
-1.4923899 1.5362439 -2.4180439
-1.2648525 1.3360822 -2.3816817
-0.98149323 1.0421394 -2.2923717
-3.9934721 1.5260563 -0.40034002
-3.9192486 1.742018 -0.67155033
-3.848845 1.9485648 -0.93052423
-3.7818222 2.1455622 -1.1774354
-3.7178187 2.3331785 -1.4127107
-3.656724 2.5124104 -1.6374377
-3.5983524 2.683826 -1.8523223
-3.5382967 2.8347158 -2.0476096
-3.39955 2.7376335 -2.0473933
-3.2548656 2.6314785 -2.0421865
-3.1253452 2.5754104 -2.0769856
-2.9993243 2.5328496 -2.1229901
-2.8694558 2.483572 -2.1649127
-2.7370658 2.4315464 -2.2058353
-2.602499 2.3778768 -2.2466314
-2.4649072 2.3207712 -2.286087
-2.3211942 2.2536619 -2.3197389
-2.1693716 2.1731806 -2.345582
-2.0135143 2.0890591 -2.3705916
-1.8525387 1.9994123 -2.3936243
-1.6861984 1.9042202 -2.414834
-1.5006806 1.7773905 -2.4175615
-1.3004941 1.6298913 -2.4097271
-1.0884997 1.4685485 -2.3962216
-0.81784904 1.211215 -2.326973
-3.9595594 1.7581193 -0.42073476
-3.887486 1.9665864 -0.68867218
-3.818821 2.1649704 -0.94370496
-3.7533684 2.3541455 -1.1868811
-3.690865 2.5345864 -1.4188817
-3.6311669 2.7070661 -1.6406119
-3.5903053 2.9232092 -1.8944687
-3.4704514 2.8823543 -1.9366962
-3.3314795 2.7896771 -1.9385053
-3.1923294 2.7039328 -1.9476559
-3.0686479 2.6660447 -1.9956777
-2.9452372 2.6316628 -2.0471578
-2.8196936 2.5944612 -2.0972106
-2.6895165 2.5487545 -2.1416881
-2.5544846 2.4948838 -2.1811011
-2.4168725 2.4387255 -2.2199578
-2.2764139 2.3799179 -2.2580695
-2.1328979 2.318259 -2.2953758
-1.9828312 2.2468812 -2.3271985
-1.8226711 2.1596045 -2.3496108
-1.6569003 2.0663841 -2.3698044
-1.4862187 1.9690129 -2.3891497
-1.3081191 1.8632475 -2.4050043
-1.1045521 1.7176707 -2.3974307
-0.88445169 1.5507445 -2.3793273
-0.64877415 1.3656487 -2.3533282
-0.28774244 0.9826088 -2.2099462
-4.0136294 1.8315885 -0.21641123
-3.9268742 1.9847388 -0.44155347
-3.8566122 2.1849229 -0.70533663
-3.7896085 2.375469 -0.95650828
-3.7256694 2.5571921 -1.1960762
-3.6646166 2.7307839 -1.4249071
-3.6176019 2.9329109 -1.67433
-3.5293174 2.9914203 -1.7993336
-3.3929214 2.9047537 -1.8030884
-3.2551041 2.8212028 -1.8111808
-3.1321764 2.7841959 -1.858524
-3.0118752 2.7567706 -1.9142581
-2.8877244 2.7217615 -1.9646027
-2.761621 2.6845231 -2.0139441
-2.6342683 2.6469154 -2.0637741
-2.5042825 2.6058698 -2.111789
-2.3690772 2.5560927 -2.1541562
-2.2280543 2.4971356 -2.1908183
-2.0844631 2.4364562 -2.2274551
-1.9370451 2.3717093 -2.2624471
-1.7866501 2.304877 -2.2973142
-1.6280257 2.2262855 -2.3254232
-1.4579499 2.1309972 -2.3437724
-1.2807674 2.0280352 -2.3589394
-1.0967009 1.9183708 -2.3718061
-0.90525502 1.8016623 -2.3823571
-0.6753763 1.6272297 -2.3583467
-0.42677635 1.4308803 -2.3241339
-3.9778881 2.0489271 -0.23174733
-3.8951335 2.2050931 -0.46188551
-3.8265877 2.3972616 -0.7215423
-3.7611957 2.5803785 -0.96902102
-3.6987023 2.7549386 -1.2050469
-3.6393051 2.9228046 -1.4315271
-3.5769014 3.0661364 -1.6331702
-3.4484639 3.0028667 -1.6544578
-3.3138876 2.9275877 -1.6668885
-3.1850805 2.8739443 -1.6990161
-3.0671062 2.852596 -1.7589755
-2.9487686 2.8319235 -1.8199342
-2.8287561 2.8086867 -1.8792596
-2.7034545 2.7747302 -1.9305439
-2.5750487 2.7360489 -1.9788311
-2.4446208 2.6954596 -2.0264511
-2.3124299 2.6536884 -2.0740185
-2.1775513 2.6089501 -2.1202259
-2.0360794 2.5537443 -2.1595926
-1.8881533 2.4892402 -2.1933038
-1.7373914 2.423003 -2.2271161
-1.5820711 2.3520284 -2.258945
-1.4230937 2.2782919 -2.2903247
-1.2537915 2.1904597 -2.3135147
-1.0704074 2.0832434 -2.3253593
-0.87988615 1.9695061 -2.335084
-0.68006533 1.8462362 -2.3409088
-0.45821136 1.6940968 -2.3305867
-0.19628316 1.4873675 -2.2886086
-3.9475183 2.2785611 -0.26383388
-3.864274 2.4193325 -0.48165357
-3.7973652 2.6038079 -0.73727268
-3.7335029 2.7797477 -0.98109907
-3.6778798 2.9653111 -1.2299659
-3.6167355 3.1164324 -1.4438459
-3.4912286 3.0631599 -1.4724381
-3.3572893 2.990484 -1.4850829
-3.2302389 2.9425187 -1.5207591
-3.1167645 2.933846 -1.5912046
-3.0015659 2.9214892 -1.6587092
-2.8819771 2.8993807 -1.7183065
-2.7612014 2.8760481 -1.7773612
-2.6395702 2.852366 -1.8366256
-2.5156922 2.8253248 -1.8936861
-2.3841166 2.7837024 -1.9397246
-2.2489121 2.7371984 -1.9828169
-2.1120288 2.6901326 -2.0264621
-1.9734265 2.6424761 -2.0706553
-1.832582 2.5932961 -2.1147141
-1.6836963 2.5321226 -2.1509156
-1.5308052 2.4670932 -2.185596
-1.3727556 2.3965113 -2.2176535
-1.2087003 2.3193691 -2.2465501
-1.0388734 2.2365389 -2.2731051
-0.85477072 2.1347687 -2.2883677
-0.65599978 2.0147805 -2.2934308
-0.44678748 1.8843111 -2.2940421
-0.2266373 1.7433254 -2.2905126
-3.9204187 2.5104337 -0.30389524
-3.8418055 2.6553416 -0.52760547
-3.7734141 2.8204112 -0.7674793
-3.7251582 3.0352755 -1.0508866
-3.6429653 3.1231496 -1.2109575
-3.5186806 3.0769701 -1.2452631
-3.3887219 3.0185652 -1.2693962
-3.2667542 2.986968 -1.3189814
-3.1554112 2.9858952 -1.3964677
-3.0423889 2.9806514 -1.4703028
-2.9288149 2.9744499 -1.5434167
-2.8143668 2.9666376 -1.6152799
-2.6931062 2.9438961 -1.6746397
-2.5673852 2.912885 -1.7275584
-2.4405189 2.8814454 -1.7807903
-2.3124299 2.849458 -1.8342512
-2.1808991 2.8125463 -1.8844323
-2.04317 2.7658081 -1.9275961
-1.9037054 2.7184811 -1.9713035
-1.7624619 2.6705341 -2.0155497
-1.6187949 2.6208711 -2.0595186
-1.4727672 2.5697365 -2.1034493
-1.3164805 2.5039148 -2.1375942
-1.1577158 2.4373105 -2.1725836
-0.98749089 2.3555646 -2.1981091
-0.81186342 2.2692497 -2.2221541
-0.63037825 2.1779897 -2.2446036
-0.42405641 2.0537372 -2.2463369
-0.20486635 1.9161959 -2.2417526
0.05367434 1.7283492 -2.2066288
-3.814311 2.8629963 -0.55183285
-3.7447662 3.0123463 -0.77903968
-3.642776 3.0441761 -0.88910043
-3.5185237 3.0057192 -0.93111753
-3.3945379 2.9714565 -0.97794634
-3.2881813 2.9888818 -1.0739233
-3.1783786 2.995738 -1.1597383
-3.0724721 3.0119863 -1.253994
-2.9659851 3.0255814 -1.3454978
-2.8486233 3.0124903 -1.4128796
-2.7307422 2.9991338 -1.4803131
-2.6123285 2.9855123 -1.5478067
-2.4901109 2.9646816 -1.6093966
-2.3622179 2.9334705 -1.6626256
-2.2330983 2.9017315 -1.7160928
-2.10254 2.8691006 -1.7695141
-1.9708118 2.8361599 -1.8233932
-1.8335521 2.7949567 -1.8713346
-1.6914325 2.7473667 -1.9150989
-1.5474712 2.6991272 -1.9593915
-1.400878 2.6489577 -2.0032444
-1.2520869 2.5977173 -2.047375
-1.099619 2.5431147 -2.090097
-0.93628222 2.4741371 -2.1233697
-0.75947583 2.3878276 -2.1455064
-0.57727581 2.2974391 -2.1665943
-0.38719845 2.1996217 -2.1843967
-0.18334889 2.0864539 -2.1936393
0.07725811 1.898899 -2.1543431
-3.3505964 2.7766688 -0.5314731
-3.2788239 2.903415 -0.73745561
-3.1839848 2.957938 -0.87129414
-3.0842943 2.9956489 -0.98797166
-2.9768 3.0112042 -1.0830331
-2.8675056 3.0213325 -1.1727206
-2.7581191 3.0305243 -1.2613262
-2.6422415 3.0247321 -1.33617
-2.5225801 3.0112414 -1.4042604
-2.4020128 2.9967477 -1.4717636
-2.2804856 2.9812398 -1.5387027
-2.1526783 2.9544749 -1.5962963
-2.0210371 2.9220591 -1.6496794
-1.8881221 2.8891661 -1.7033792
-1.7540135 2.8559783 -1.7575614
-1.6186842 2.8224719 -1.812217
-1.4750849 2.7767854 -1.8578026
-1.3283257 2.7282524 -1.9021366
-1.1787336 2.6776106 -1.945891
-1.0269533 2.6260223 -1.9900334
-0.87305844 2.5736675 -2.0347319
-0.70726049 2.5060139 -2.0691104
-0.52377021 2.4156756 -2.0882165
-0.33329266 2.3194087 -2.1050019
-0.13411391 2.2152123 -2.1182284
0.10057151 2.0670547 -2.1027212
-3.1438863 2.7950659 -0.44870889
-3.0761428 2.92623 -0.66166025
-2.9768224 2.9687543 -0.78540075
-2.8702068 2.9906507 -0.88834256
-2.7636571 3.0111046 -0.98942238
-2.6531653 3.0213709 -1.0804706
-2.5425048 3.0305786 -1.1703062
-2.4308853 3.037194 -1.2575573
-2.3094273 3.0236378 -1.326383
-2.1866102 3.0082746 -1.3938949
-2.063134 2.9925842 -1.4614625
-1.9386656 2.9759865 -1.5285892
-1.8045833 2.9432046 -1.5821487
-1.6692808 2.9101076 -1.6361747
-1.5327629 2.8767297 -1.6907063
-1.3949796 2.8430099 -1.7457027
-1.2545552 2.8067729 -1.799399
-1.1049281 2.7579639 -1.8437828
-0.95221281 2.7068067 -1.8873953
-0.79739237 2.6549287 -1.9315896
-0.6380353 2.5988464 -1.9737014
-0.46592462 2.5271735 -2.0052125
-0.27894372 2.4379988 -2.0252151
-0.078683972 2.3346155 -2.0367284
0.18671656 2.1489182 -1.9907237
1.7657434 0.25914788 -0.72928071
1.7670721 0.46007586 -0.98305726
1.8885471 0.50268579 -1.122571
2.0046778 0.55019855 -1.2644751
-2.9138989 2.767509 -0.31725001
-2.8447123 2.8909504 -0.52576733
-2.7563701 2.9609745 -0.67876714
-2.6493237 2.9843178 -0.78464061
-2.5425217 3.0065737 -0.88893539
-2.4328659 3.0214107 -0.98565608
-2.3208964 3.0306342 -1.0767553
-2.2090871 3.039593 -1.1673992
-2.0908456 3.035852 -1.2461716
-1.9659462 3.0201206 -1.31415
-1.8405241 3.0043583 -1.3824581
-1.7145449 2.9885077 -1.451046
-1.5838745 2.9656096 -1.5138395
-1.4460959 2.9322553 -1.5681403
-1.3070186 2.8985374 -1.6228898
-1.1664333 2.864157 -1.6778489
-1.0241952 2.8289428 -1.7328987
-0.87700665 2.7880592 -1.7841191
-0.72144806 2.7369454 -1.8280314
-0.56298602 2.6840432 -1.8716849
-0.38885218 2.6117861 -1.9013965
-0.20922238 2.5352256 -1.9294302
-0.023479581 2.453819 -1.9555213
0.30208123 2.1942418 -1.8501253
1.1561466 1.2729809 -1.2629609
1.4807316 1.0486534 -1.2024484
1.7165254 0.94164634 -1.2308327
1.9030267 0.8978405 -1.3060733
2.0587883 0.89183915 -1.4084544
-2.6164193 2.6014614 -0.040297985
-2.6032639 2.8517218 -0.38204372
-2.5218086 2.9369855 -0.55290419
-2.4211001 2.976316 -0.67636204
-2.313858 2.9998884 -0.78350729
-2.2063637 3.0214703 -0.88818628
-2.09304 3.0306916 -0.98056775
-1.9799424 3.0397758 -1.0726073
-1.8671384 3.0488565 -1.1644344
-1.740515 3.0334895 -1.233557
-1.6130141 3.0174866 -1.3024559
-1.4849259 3.0013759 -1.3716265
-1.3559078 2.9846177 -1.4405949
-1.2179356 2.9547732 -1.4985107
-1.0762503 2.920768 -1.5535252
-0.93267179 2.8855994 -1.6083329
-0.78785205 2.8502917 -1.6638337
-0.64150095 2.814445 -1.7197013
-0.48669827 2.7685373 -1.7681798
-0.31134105 2.6968803 -1.7969878
-0.12864494 2.6186082 -1.8221977
0.076384664 2.514735 -1.8291913
0.87230527 1.6663047 -1.2649465
1.1361181 1.5129 -1.2477093
1.407427 1.3564532 -1.2317312
1.6476461 1.2431912 -1.2511359
1.8471204 1.1819468 -1.3108289
2.017509 1.1564071 -1.3973855
2.1669035 1.1554786 -1.5017898
-2.3416297 2.7887955 -0.20987582
-2.2716479 2.897434 -0.4076429
-2.1858139 2.9680481 -0.56471854
-2.0777011 2.9920297 -0.67389905
-1.9704418 3.016124 -0.78262961
-1.8588512 3.0310764 -0.88194478
-1.7443641 3.0401561 -0.97529227
-1.6301632 3.0492125 -1.0684056
-1.5099065 3.0478578 -1.1515907
-1.3802713 3.0316138 -1.2210851
-1.2500396 3.0152771 -1.2908746
-1.1182868 2.9974542 -1.3597112
-0.98468852 2.9777727 -1.427316
-0.84002566 2.9430628 -1.4822321
-0.69406527 2.9081407 -1.5377758
-0.54635942 2.8724041 -1.5934422
-0.39625323 2.8350244 -1.6485633
-0.23044127 2.7785807 -1.6887695
-0.047601342 2.7025867 -1.7143312
0.20066082 2.5471683 -1.6777464
0.93642032 1.7952226 -1.1716655
1.1710345 1.6807334 -1.1812948
1.4148699 1.5597817 -1.1886235
1.638415 1.4671295 -1.2202318
1.8323616 1.4118161 -1.2818747
2.0039396 1.383653 -1.3647584
2.1554213 1.3786527 -1.4650471
-2.0089304 2.6076922 0.090388775
-2.0099328 2.8535113 -0.25366384
-1.9360926 2.9465594 -0.43637639
-1.8341565 2.9839251 -0.56086153
-1.7262915 3.0088534 -0.67209554
-1.6181214 3.0318615 -0.78085226
-1.5022932 3.0410707 -0.87567103
-1.3867471 3.0502372 -0.97023034
-1.2710576 3.0587049 -1.063911
-1.1416644 3.0460153 -1.1376089
-1.0086762 3.0286503 -1.2072916
-0.87466693 3.010654 -1.2768103
-0.74024332 2.9929223 -1.3469936
-0.59906876 2.9667363 -1.4100931
-0.44979298 2.9308538 -1.465322
-0.2955814 2.8900702 -1.5171669
-0.12619936 2.8315537 -1.5548689
0.064786553 2.7483368 -1.5732048
0.78692818 2.0144022 -1.054493
1.0196978 1.900658 -1.0595595
1.2360069 1.8108903 -1.0866139
1.4625279 1.7127686 -1.1091727
1.6658801 1.644747 -1.1575642
1.8476602 1.6033521 -1.2280459
2.0173731 1.5767021 -1.3106747
2.1680913 1.5714543 -1.4098878
-1.7372706 2.8078079 -0.093288302
-1.6664391 2.9051862 -0.28371459
-1.5830982 2.9759445 -0.4446218
-1.4744507 3.0013731 -0.55809438
-1.3665581 3.0266254 -0.67077947
-1.2531437 3.0419927 -0.77312267
-1.136012 3.0509572 -0.86886728
-1.0188504 3.0594301 -0.96392393
-0.89686799 3.0605659 -1.0518155
-0.76166332 3.0431139 -1.122268
-0.62580347 3.0255775 -1.1930622
-0.48845226 3.0068433 -1.2631842
-0.35029727 2.9878914 -1.3335615
-0.19189298 2.943851 -1.3820994
-0.014255404 2.8775973 -1.4122237
0.2439245 2.7153347 -1.3609328
0.9258126 2.0507033 -0.88523889
1.1229669 1.9833337 -0.92755586
1.3300575 1.9071407 -0.96418232
1.5326997 1.8389161 -1.0091472
1.715242 1.7955908 -1.0757838
1.8909024 1.7613717 -1.1506783
2.050148 1.7459649 -1.2410777
2.1937742 1.7475245 -1.3448846
-1.3703893 2.6213381 0.22117698
-1.3845749 2.8605328 -0.12304938
-1.318938 2.9597247 -0.316369
-1.2141857 2.9931061 -0.43987978
-1.105693 3.0191152 -0.5551157
-0.99661207 3.0429416 -0.66753572
-0.87794453 3.0518589 -0.76465291
-0.7595973 3.0607936 -0.86156994
-0.64107734 3.0690718 -0.95763642
-0.50878662 3.0586064 -1.0356807
-0.36996818 3.0401039 -1.1064372
-0.22897053 3.0196376 -1.175826
-0.071571469 2.9795947 -1.2278188
0.14533055 2.8685856 -1.2167825
0.88659823 2.1351137 -0.65463591
1.0658108 2.0898297 -0.71429092
1.2480186 2.0429013 -0.77362835
1.4413325 1.9852898 -0.82499701
1.6167821 1.9496094 -0.89621466
1.7871042 1.9208219 -0.97401476
1.946848 1.9043473 -1.0625714
2.0925465 1.9031434 -1.1638124
2.2281003 1.9123923 -1.2733619
-1.0874456 2.809139 0.049665213
-1.0267221 2.9146519 -0.1538738
-0.94537461 2.9845276 -0.31775331
-0.83625925 3.0112374 -0.43556416
-0.72793972 3.0377512 -0.55251461
-0.61257327 3.0534143 -0.65793151
-0.4926393 3.0622787 -0.75623006
-0.37247258 3.0704374 -0.85361946
-0.24938118 3.0745199 -0.94687194
-0.094670534 3.0391521 -1.0024357
0.12689245 2.9240274 -0.98387301
0.9445945 2.1041651 -0.31416351
1.0786105 2.1149163 -0.4252919
1.2378253 2.096446 -0.50975972
1.4004146 2.0749209 -0.5919646
1.5605956 2.0568709 -0.67775553
1.7161924 2.0444431 -0.76886272
1.8685516 2.0359001 -0.863594
2.0090604 2.0399766 -0.96915323
2.1479621 2.0455458 -1.0758488
2.3013802 2.0363734 -1.1703705
-0.72052741 2.8659201 0.017536998
-0.66572922 2.9730408 -0.18879354
-0.55755693 3.0026197 -0.3115567
-0.44899374 3.0302873 -0.43160594
-0.33914375 3.0550165 -0.54796851
-0.21744031 3.0636454 -0.64752495
-0.07066679 3.0408909 -0.71571225
1.3494009 1.8416919 0.15620279
1.3337852 2.030062 -0.12744558
1.4351019 2.0806932 -0.27829593
1.5580031 2.1057765 -0.40444124
1.6855909 2.1248813 -0.5245468
1.8231405 2.1327953 -0.63419044
1.9532901 2.1480572 -0.75009614
2.0861735 2.1599979 -0.86273956
2.208971 2.1815581 -0.98329943
-0.32841247 2.8978438 0.012502313
-0.26095361 2.9827785 -0.17177933
-0.10150695 2.9480231 -0.22863555
1.7158045 1.6423205 0.58599484
1.6018118 1.9415166 0.18547082
1.6278542 2.07687 -0.050601602
1.7142445 2.1427269 -0.21759135
1.8194021 2.1864827 -0.36231166
1.9281794 2.2249029 -0.50101131
2.0476165 2.2511899 -0.6277377
2.1587863 2.2847137 -0.7602551
1.8086563 1.9299892 0.43375397
1.8112925 2.0894713 0.16824865
1.8633119 2.1915836 -0.037337184
1.940045 2.2646885 -0.21244544
2.0379539 2.3139224 -0.36306691
2.1354446 2.3617921 -0.51113689
1.9531475 2.1508551 0.3443557
1.9927422 2.2642741 0.1235919
2.0604396 2.3455639 -0.062437654
2.1443582 2.4080706 -0.2280128
0 0 0 1 0 0 0 1 0 0 0 1 0 0 0 0 0 580 1 0 0
