ply
format ascii 1.0
comment PCL generated
element vertex 590
property float x
property float y
property float z
element camera 1
property float view_px
property float view_py
property float view_pz
property float x_axisx
property float x_axisy
property float x_axisz
property float y_axisx
property float y_axisy
property float y_axisz
property float z_axisx
property float z_axisy
property float z_axisz
property float focal
property float scalex
property float scaley
property float centerx
property float centery
property int viewportx
property int viewporty
property float k1
property float k2
end_header
-2.3642697 3.117626 1.0660212
-2.3354397 3.1094041 1.2311203
-2.267127 3.112134 1.3802121
-2.1733282 3.1218135 1.5202684
-2.3661385 3.0000522 0.52595955
-2.4053996 2.9737659 0.72562337
-2.4071126 2.9577 0.90599525
-2.387624 2.9473875 1.0756733
-2.3485029 2.9423275 1.2363136
-2.2829139 2.9442205 1.3862422
-2.2050173 2.9492872 1.5318842
-2.090729 2.9636934 1.6653388
-1.9629405 2.9814188 1.7959424
-1.7744631 3.014468 1.9091185
-2.2794933 2.8705149 0.3004204
-2.3631711 2.8341327 0.5245896
-2.4101267 2.807368 0.72772837
-2.4126399 2.7920005 0.90836728
-2.3993466 2.7807264 1.0805185
-2.3628235 2.7753198 1.2420063
-2.296164 2.7773898 1.3913038
-2.216033 2.7827389 1.5359217
-2.0955725 2.797863 1.6670403
-1.9597809 2.8165503 1.7948802
-1.7835147 2.8448136 1.9120262
-1.5416406 2.8885405 2.0125391
-2.0626934 2.7682812 0.0056570768
-2.2598751 2.7063532 0.29104328
-2.372978 2.6650856 0.52911615
-2.4719009 2.6276093 0.75523627
-2.5080199 2.6053112 0.94930625
-2.5097437 2.591301 1.1261458
-2.4809732 2.5845404 1.288978
-2.412401 2.5870743 1.435702
-2.3253274 2.5938482 1.5759828
-2.1812172 2.613636 1.6971244
-1.9996831 2.6417639 1.8082939
-1.785117 2.6771076 1.9125408
-1.5204995 2.7234025 2.006062
-2.0024257 2.6088498 -0.024150133
-2.3152425 2.5247905 0.31750739
-2.5294526 2.4636168 0.60133743
-2.6211293 2.4302747 0.82168764
-2.6527624 2.4105341 1.0114317
-2.644047 2.3998582 1.1816533
-2.6144578 2.3938525 1.3420448
-2.5471911 2.396095 1.4871875
-2.4623232 2.4021194 1.626197
-2.3317184 2.4179177 1.7499915
-2.1798987 2.4380944 1.868875
-1.927685 2.4794385 1.9583333
-1.5095668 2.5555053 2.0027125
-0.89037657 2.6731834 1.9989631
-1.8117363 2.4750481 -0.11846149
-2.5563474 2.3060119 0.43275034
-2.6913826 2.2656662 0.67607665
-2.757849 2.2399452 0.8825686
-2.785584 2.2224722 1.0684414
-2.7683787 2.2143905 1.2330401
-2.7382317 2.2090311 1.3912516
-2.6720881 2.2110269 1.5348939
-2.5891223 2.2163961 1.6726737
-2.4698787 2.2289917 1.7985232
-2.3242729 2.2467237 1.9174075
-2.1021135 2.2794859 2.0143595
-1.7639283 2.3348546 2.0806465
-2.468847 2.1698749 0.20653355
-2.7260637 2.1083148 0.51387191
-2.8377562 2.0755382 0.74363548
-2.8811653 2.0562372 0.93748122
-2.9077857 2.04035 1.120892
-2.884151 2.0341911 1.280889
-2.8535957 2.0294063 1.437115
-2.7883821 2.0311973 1.5793142
-2.7068894 2.0360193 1.7158401
-2.5960212 2.0462673 1.842833
-2.4537113 2.0622411 1.9609191
-2.2591772 2.0876882 2.0648079
-1.99509 2.1256461 2.1514721
-2.6733835 1.9660735 0.30769348
-2.8678565 1.9207009 0.58164543
-2.9705966 1.8921778 0.80494833
-2.995312 1.8778046 0.98831046
-3.0191514 1.8637369 1.1686921
-2.9896028 1.8591932 1.3244721
-2.9589248 1.8548939 1.4789885
-2.8944137 1.8565199 1.6198144
-2.8143048 1.8608267 1.7552123
-2.7116725 1.8689647 1.8834584
-2.5736043 1.8830849 2.0012224
-2.4020004 1.9027734 2.1106825
-2.1740222 1.9318157 2.2062953
-1.7753005 1.9893533 2.2571213
-2.367142 1.8628509 -0.031857133
-2.8529346 1.7725506 0.39649606
-2.9942548 1.7398576 0.64206111
-3.0807533 1.7164783 0.85579109
-3.1021903 1.7039313 1.0359035
-3.1196899 1.6921535 1.2118448
-3.088407 1.6883525 1.3653079
-3.0573814 1.6845498 1.5181302
-2.9938476 1.6859663 1.6577947
-2.9151881 1.6897659 1.7921902
-2.8194983 1.6962123 1.9213347
-2.6853271 1.708631 2.0387788
-2.5328376 1.7237835 2.1527073
-2.3108044 1.7495853 2.2482038
-1.9772627 1.7923613 2.3160396
-2.7499602 1.6356567 0.16390216
-3.0101056 1.5877881 0.47423017
-3.1103244 1.5643373 0.69753981
-3.180939 1.5455374 0.90203196
-3.2011318 1.5343935 1.0799618
-3.2134013 1.5245327 1.2520676
-3.1819048 1.5211806 1.4039513
-3.1505184 1.5178474 1.5551571
-3.0877404 1.5190957 1.6936591
-3.0103378 1.5224385 1.8270657
-2.9205959 1.5275164 1.9568472
-2.7886376 1.5385643 2.0735078
-2.6503868 1.5503931 2.1904643
-2.4367306 1.5727507 2.2867858
-2.1554265 1.6043878 2.3680158
-2.9159818 1.4495133 0.24879956
-3.1280415 1.4130569 0.53255898
-3.2182364 1.3933847 0.74911976
-3.2740796 1.3785186 0.94502151
-3.2919593 1.3688629 1.1204076
-3.2991157 1.3607286 1.2888573
-3.2676644 1.3577651 1.4393957
-3.2363496 1.3548144 1.5892797
-3.1741309 1.3559232 1.7266572
-3.0976131 1.3588749 1.859056
-3.012629 1.3628891 1.9891758
-2.8840668 1.3724566 2.105587
-2.7535975 1.3821708 2.2236156
-2.553128 1.4006829 2.3224487
-2.3100185 1.4244012 2.4131148
-1.8552314 1.4745148 2.4505448
-3.0559113 1.2715411 0.32035446
-3.2301278 1.243776 0.58304906
-3.3173642 1.226709 0.79650056
-3.3623207 1.2148526 0.98574954
-3.3781862 1.2065635 1.1588042
-3.3806925 1.1999339 1.3238713
-3.348928 1.1973865 1.472982
-3.3172703 1.1948532 1.6214498
-3.2557712 1.1958039 1.7578409
-3.1803684 1.1983478 1.8893892
-3.1000197 1.2014329 2.0198741
-2.9743814 1.2096549 2.1359472
-2.8469825 1.2179934 2.2536104
-2.6592908 1.2330586 2.3549759
-2.4484417 1.2505757 2.4534965
-2.0897322 1.2844539 2.5155518
-2.8119771 1.1445698 0.013033032
-3.1822398 1.0992361 0.38495398
-3.3255675 1.0782629 0.63025165
-3.4075904 1.0639285 0.83962697
-3.4430327 1.0545943 1.0230023
-3.4583375 1.0474439 1.1944952
-3.457725 1.0420078 1.3569351
-3.4259822 1.0398179 1.5048286
-3.3943739 1.0376372 1.6521024
-3.333426 1.0384539 1.7875025
-3.2588389 1.0406381 1.9181517
-3.1820097 1.0430248 2.0486741
-3.0578897 1.0501093 2.1640186
-2.9320431 1.0572934 2.2809315
-2.7570202 1.069266 2.3849196
-2.5552831 1.0837457 2.4846654
-2.2289505 1.1102732 2.5541458
-3.0332868 0.96088648 0.12995696
-3.292758 0.93218225 0.44146931
-3.4148686 0.91617209 0.67441821
-3.4927616 0.90429866 0.880337
-3.5194421 0.8971203 1.058269
-3.5329342 0.89118826 1.2277133
-3.5288875 0.88686663 1.3874794
-3.4968977 0.88504416 1.5341383
-3.4650383 0.88322914 1.6801952
-3.4046776 0.88391012 1.8147185
-3.3310874 0.88572788 1.9446337
-3.257221 0.88755077 2.0750937
-3.1360838 0.89340085 2.1903048
-3.0129097 0.89936501 2.3069062
-2.8493526 0.90869045 2.413209
-2.6518707 0.92078215 2.5128431
-2.3539493 0.94117761 2.5887966
-1.7580614 0.98623902 2.5934207
-3.193912 0.78853703 0.21481979
-3.394737 0.76911318 0.49361718
-3.4950273 0.75745237 0.71406323
-3.5708237 0.74774677 0.91764861
-3.5914192 0.74224824 1.0914904
-3.6043954 0.73737115 1.2595346
-3.5975235 0.73400545 1.416939
-3.5652933 0.73253065 1.5624062
-3.5332196 0.73105979 1.7073007
-3.4734521 0.73160994 1.8409877
-3.4007962 0.73308301 1.9701844
-3.3278751 0.73456007 2.0999124
-3.2105246 0.73919076 2.2153287
-3.0887284 0.74409002 2.331259
-2.9327967 0.75134999 2.4387755
-2.7397294 0.76114577 2.5384736
-2.4695404 0.77623445 2.6208405
-1.9831377 0.80621088 2.6525807
-3.2937746 0.62476021 0.26758003
-3.4881427 0.60964423 0.54138148
-3.5714896 0.60136443 0.75188005
-3.6435115 0.59385014 0.95239258
-3.6579146 0.58984262 1.1221817
-3.6693499 0.58605295 1.2884593
-3.6604013 0.58350283 1.4439272
-3.6282489 0.5823378 1.5884261
-3.5962508 0.58117586 1.7323592
-3.5369058 0.5816105 1.8652248
-3.4648347 0.58277416 1.9936576
-3.3925011 0.58394092 2.1226141
-3.2785649 0.58746958 2.2382011
-3.1590779 0.59127754 2.3538547
-3.0113144 0.59664428 2.4628329
-2.8231392 0.60422826 2.5628068
-2.572644 0.61522132 2.6494222
-2.1695793 0.6345942 2.7015862
-3.3862727 0.46435326 0.31644917
-3.5692422 0.4535557 0.58285308
-3.6416917 0.44785687 0.78660119
-3.711215 0.44235012 0.98475289
-3.7221761 0.43951413 1.1518414
-3.7320678 0.43675557 1.3163873
-3.7209706 0.43495238 1.4699242
-3.6886876 0.4340983 1.613405
-3.6565056 0.43324867 1.7563133
-3.5976412 0.43356729 1.8884239
-3.5263906 0.43441814 2.0162201
-3.45486 0.43527237 2.1445191
-3.3443184 0.43778723 2.2603049
-3.2268991 0.4405694 2.3756392
-3.0849822 0.44436136 2.4854035
-2.8989499 0.44997466 2.5849228
-2.6656904 0.45751253 2.6752162
-2.3309834 0.46920905 2.7440104
-3.0901282 0.32030153 -0.019814968
-3.4698768 0.30702704 0.36061919
-3.6381831 0.30028549 0.61810714
-3.7071409 0.29660243 0.81897122
-3.7705386 0.29312482 1.0131083
-3.7802081 0.29128203 1.1786267
-3.7897556 0.28946227 1.3420757
-3.777467 0.28830415 1.4941736
-3.7452331 0.28774199 1.6367755
-3.7130995 0.28718278 1.7788129
-3.6546123 0.2873928 1.9101846
-3.5838809 0.28795359 2.0372925
-3.5128987 0.28851578 2.164907
-3.4044197 0.290142 2.2805083
-3.2882373 0.29197034 2.3953409
-3.1521239 0.29434317 2.5059752
-2.9704781 0.29797164 2.6057899
-2.7532496 0.30255872 2.6994891
-2.4395688 0.30978358 2.7725515
-3.215662 0.15823092 0.048661232
-3.5450096 0.15236974 0.40031433
-3.7008927 0.14919281 0.65017426
-3.7687609 0.14737274 0.84944701
-3.8281546 0.14569876 1.0406477
-3.8366179 0.14479984 1.2046623
-3.8449774 0.14391196 1.3666657
-3.831203 0.14335907 1.5172379
-3.7987883 0.14308475 1.6589099
-3.7665236 0.14281113 1.8000512
-3.7085204 0.14291316 1.9307759
-3.6385086 0.14318717 2.0573153
-3.5682287 0.14346224 2.1843424
-3.4622917 0.14424312 2.2999623
-3.3479419 0.14513548 2.4145184
-3.2166901 0.14625753 2.5257573
-3.0369453 0.14804959 2.62518
-2.8292866 0.15021403 2.720567
-2.5254598 0.15369466 2.7951274
-3.3191841 -4.7902195e-06 0.1051296
-3.6160157 -4.7902195e-06 0.43782866
-3.7599535 -4.7902195e-06 0.68037564
-3.8248482 -4.7902195e-06 0.87718666
-3.8801045 -4.7902195e-06 1.0654786
-3.8882294 -4.7902195e-06 1.2284837
-3.8963048 -4.7902195e-06 1.3895215
-3.8817582 -4.7902195e-06 1.538937
-3.8494654 -4.7902195e-06 1.679855
-3.817296 -4.7902195e-06 1.8202361
-3.759604 -4.7902195e-06 1.9502881
-3.6900275 -4.7902195e-06 2.0761991
-3.6201856 -4.7902195e-06 2.2025931
-3.515734 -4.7902195e-06 2.3179274
-3.4022946 -4.7902195e-06 2.4319763
-3.2741101 -4.7902195e-06 2.5433505
-3.0981064 -4.7902195e-06 2.6430225
-2.9011312 -4.7902195e-06 2.7404842
-2.6045108 -4.7902195e-06 2.8159053
-3.4129212 -0.15522741 0.15626109
-3.6768475 -0.15037645 0.46996796
-3.8149624 -0.14747879 0.70850527
-3.8786669 -0.14573054 0.90380454
-3.926785 -0.14423391 1.0877907
-3.9298954 -0.14342242 1.2477146
-3.9325237 -0.14262663 1.40565
-3.9150226 -0.14213537 1.5532147
-3.8810401 -0.14189045 1.6929048
-3.8472247 -0.14164566 1.8321347
-3.7903819 -0.14173694 1.9620442
-3.7228246 -0.14198169 2.0882211
-3.6550338 -0.14222728 2.2148342
-3.555738 -0.14291978 2.3313746
-3.4479635 -0.14372556 2.4466448
-3.3279824 -0.14469561 2.5598564
-3.1563876 -0.14638105 2.6600251
-2.9655223 -0.14831911 2.7583346
-2.673914 -0.15163922 2.8341475
-3.4897313 -0.30810356 0.19815934
-3.7265804 -0.29923704 0.49624324
-3.8420043 -0.29413563 0.72233397
-3.890636 -0.29109654 0.90972435
-3.9356663 -0.28819752 1.092036
-3.935359 -0.2866776 1.2502365
-3.9350793 -0.28517288 1.4067881
-3.9190843 -0.28414643 1.554958
-3.8843153 -0.28368023 1.6942585
-3.8494618 -0.28322139 1.833024
-3.7930086 -0.283393 1.9630473
-3.7264836 -0.28385317 2.0895624
-3.6594372 -0.28432357 2.2163813
-3.5592504 -0.28573456 2.3325562
-3.4550762 -0.2872445 2.4489293
-3.3327427 -0.28925201 2.5613146
-3.1759181 -0.29220858 2.6657224
-2.9984431 -0.29571301 2.7674601
-2.7406182 -0.30141798 2.8516803
-2.2283542 -0.31411013 2.8784785
-3.5076706 -0.46133086 0.20794463
-3.7141743 -0.4494186 0.48968875
-3.8299522 -0.44174734 0.71617067
-3.87535 -0.43733156 0.90216398
-3.9151697 -0.43321311 1.082239
-3.9203753 -0.43068239 1.2433209
-3.9170384 -0.42855749 1.3987545
-3.9028673 -0.42693305 1.5479977
-3.8672452 -0.42626753 1.6872036
-3.8317597 -0.42560294 1.8259864
-3.7754188 -0.42585152 1.9563289
-3.7093778 -0.42651686 2.0832925
-3.6416495 -0.42724797 2.2101331
-3.5417392 -0.42934883 2.3266697
-3.4401569 -0.43149954 2.4441373
-3.3122804 -0.43474245 2.5550456
-3.1612566 -0.43892843 2.6614451
-2.9748271 -0.44455749 2.7609134
-2.7326567 -0.45245677 2.8495879
-2.3001869 -0.46818006 2.8963375
-3.4392672 -0.61928552 0.170632
-3.6697507 -0.60192263 0.46621823
-3.7735412 -0.59240431 0.68732393
-3.8349445 -0.58553618 0.88218045
-3.869571 -0.58034241 1.0604439
-3.8825104 -0.57649368 1.225844
-3.8768382 -0.57378668 1.3808532
-3.86549 -0.57144219 1.5319541
-3.8287859 -0.57060665 1.6713082
-3.7921643 -0.56977504 1.8102453
-3.73595 -0.57008719 1.9412528
-3.6706276 -0.57092118 2.0690887
-3.5983963 -0.57214278 2.1949396
-3.5007875 -0.57479995 2.3129029
-3.4016848 -0.57751501 2.4317799
-3.2661281 -0.58226168 2.540905
-3.1205711 -0.58752269 2.6495762
-2.9187486 -0.59587753 2.7453675
-2.6660633 -0.60697937 2.8320842
-2.0300751 -0.63919324 2.8291836
-3.1966071 -0.79263854 0.038266897
-3.5600452 -0.76073527 0.40825784
-3.6871028 -0.74703461 0.64312273
-3.7677956 -0.73696488 0.84896982
-3.796092 -0.73091888 1.0253226
-3.8187976 -0.72535276 1.1964376
-3.809751 -0.7221936 1.3509793
-3.8003266 -0.71909541 1.5039853
-3.7644384 -0.71796626 1.6447132
-3.7267008 -0.7169835 1.7842199
-3.6704593 -0.71735102 1.9162377
-3.6056125 -0.71833485 2.045258
-3.5277026 -0.720245 2.1701064
-3.4324851 -0.72337013 2.2899427
-3.3259568 -0.72726613 2.4074569
-3.190377 -0.73317403 2.5176952
-3.0337913 -0.74049824 2.6242604
-2.8291116 -0.75111103 2.7205195
-2.5258274 -0.76847637 2.7952242
-3.3861589 -0.92873126 0.31638896
-3.559268 -0.90802997 0.57775259
-3.6405945 -0.89582705 0.78605825
-3.695416 -0.8861317 0.97720122
-3.7203002 -0.87920994 1.1509758
-3.7247441 -0.87417537 1.3131256
-3.7152956 -0.87042004 1.4674886
-3.6866219 -0.86839229 1.6125515
-3.6487193 -0.86719197 1.7532183
-3.5919662 -0.86764228 1.8862561
-3.5264695 -0.86884385 2.0162489
-3.4401598 -0.87182367 2.1393552
-3.3442912 -0.87559122 2.2602954
-3.219408 -0.88179111 2.3732328
-3.0846176 -0.8887679 2.485292
-2.8970997 -0.9001196 2.5843832
-2.6611557 -0.91541976 2.6739593
-2.2367074 -0.94630063 2.7192302
-3.3380194 -1.082769 0.46461415
-3.4967358 -1.0602652 0.71490836
-3.5722818 -1.0467044 0.91834569
-3.6153512 -1.0366679 1.1025363
-3.6379278 -1.0288593 1.2744666
-3.6287723 -1.0244006 1.4303516
-3.6075358 -1.0212264 1.5798652
-3.569519 -1.0197954 1.7217314
-3.5122447 -1.020332 1.8558054
-3.4460866 -1.021759 1.9867852
-3.3510773 -1.026067 2.1080635
-3.2436819 -1.0315679 2.2264745
-3.1087685 -1.0397466 2.3376956
-2.9346726 -1.0517161 2.4393504
-2.709224 -1.0686157 2.5295742
-2.3539493 -1.0980508 2.5887966
-3.2655303 -1.239529 0.60055816
-3.4279902 -1.2134888 0.84937763
-3.5093389 -1.1973734 1.0536059
-3.5466151 -1.1866432 1.2338052
-3.5567584 -1.1792194 1.3994417
-3.5461502 -1.1743029 1.5544946
-3.5095835 -1.1724613 1.6979039
-3.4512649 -1.1731594 1.832513
-3.3772147 -1.1756638 1.9615406
-3.2750101 -1.1813719 2.0813434
-3.1421108 -1.1905245 2.1923311
-2.9743431 -1.2035431 2.2945182
-2.753082 -1.2224733 2.3837125
-2.3798487 -1.2582947 2.433486
-3.2511175 -1.3889705 0.76483601
-3.4345694 -1.3570505 1.0190964
-3.5129223 -1.3394582 1.2188019
-3.5416796 -1.3286179 1.3929701
-3.5399833 -1.3219025 1.5519454
-3.5048165 -1.3196431 1.6960092
-3.4460111 -1.3204886 1.8305062
-3.3656814 -1.3241171 1.9573134
-3.2573037 -1.3313276 2.0751228
-3.1022589 -1.3444555 2.1789341
-2.8845186 -1.3654583 2.2656667
-2.4243248 -1.4170611 2.2829847
-3.4340732 -1.5079073 1.018867
-3.5385289 -1.4844987 1.2302042
-3.5764391 -1.4711274 1.4078891
-3.5784285 -1.4631531 1.567835
-3.5443089 -1.4605192 1.7117095
-3.4853864 -1.4615053 1.8455461
-3.4031377 -1.4658428 1.9710428
-3.2908773 -1.4744388 2.0869162
-3.1249924 -1.4905962 2.1865764
-2.8413792 -1.5232975 2.251811
-3.4860137 -1.6502019 1.0428402
-3.5891681 -1.6247092 1.2527541
-3.6258037 -1.6102501 1.4290773
-3.6272552 -1.6016066 1.588015
-3.593241 -1.5987335 1.7311623
-3.5346665 -1.5998034 1.8643696
-3.4531517 -1.6044986 1.9893746
-3.3423889 -1.6137584 2.1050117
-3.177933 -1.6313487 2.2043729
-2.8939352 -1.6674224 2.2686915
-3.5390198 -1.7907617 1.0673052
-3.6392977 -1.763512 1.2750764
-3.6746829 -1.7480059 1.450057
-3.6756344 -1.7387097 1.6080104
-3.6417236 -1.7356013 1.7504368
-3.5834136 -1.7367663 1.8829892
-3.502676 -1.7417976 2.0075274
-3.3929839 -1.7517588 2.1227839
-3.2303121 -1.7706871 2.2219801
-2.9551427 -1.8085822 2.2883518
-3.5947347 -1.9292216 1.0930207
-3.6938806 -1.8999755 1.2993822
-3.7290592 -1.8832719 1.4733964
-3.729948 -1.8732673 1.6304585
-3.6965632 -1.869854 1.7722385
-3.6384826 -1.8711265 1.9040238
-3.5585847 -1.8764729 2.0280206
-3.4486291 -1.8873672 2.1423302
-3.2860646 -1.9079057 2.2407227
-3.0194201 -1.9474384 2.3089972
-3.6767735 -2.0605445 1.1308857
-3.7694974 -2.0304689 1.3330545
-3.801239 -2.0132706 1.504377
-3.8010347 -2.0027981 1.6598389
-3.7681658 -1.9990927 1.8007044
-3.7102752 -2.0005 1.9314461
-3.6328831 -2.0058272 2.0552537
-3.5224237 -2.0177369 2.1682525
-3.3637323 -2.0391574 2.2668307
-3.1254623 -2.0761719 2.3430581
-3.5519705 -2.2474868 0.9086377
-3.7957315 -2.1811936 1.1857913
-3.8708098 -2.1530247 1.3781689
-3.8945889 -2.1364732 1.5444446
-3.8914037 -2.1260142 1.6971881
-3.8592689 -2.1219873 1.8369224
-3.8018546 -2.1234941 1.9664265
-3.7284253 -2.1284478 2.0902739
-3.6178772 -2.1413329 2.2017822
-3.4686849 -2.1623557 2.3021116
-3.2483563 -2.1983085 2.3825312
-3.7982845 -2.3384056 1.0263705
-3.9390974 -2.2924979 1.2519619
-4.0027366 -2.2653379 1.4369156
-4.0126348 -2.2511148 1.5951116
-4.004178 -2.2413385 1.743798
-3.9726655 -2.237035 1.882004
-3.9158311 -2.2386448 2.0099616
-3.8471904 -2.2429602 2.1338062
-3.7389205 -2.2563221 2.2443018
-3.6047463 -2.2754598 2.3478498
-3.4163213 -2.3067224 2.4364815
-3.0409167 -2.3799131 2.4719024
-3.7185621 -2.5182478 0.82461965
-4.013289 -2.4299169 1.1291378
-4.1071267 -2.3933039 1.3295164
-4.151196 -2.3695917 1.5030246
-4.1612949 -2.3546252 1.658919
-4.1452231 -2.3463271 1.8020921
-4.1144009 -2.3417661 1.9383508
-4.0583882 -2.3434553 2.0644135
-3.9905317 -2.3480289 2.1863461
-3.8910198 -2.360271 2.2977295
-3.7799559 -2.3751895 2.4067483
-3.6091425 -2.4043722 2.4984157
-3.3634434 -2.4512365 2.5707211
-4.1302867 -2.5549998 1.0282511
-4.25845 -2.5068858 1.2463198
-4.328227 -2.4749088 1.4315655
-4.3415031 -2.4583123 1.5877683
-4.3522997 -2.4425468 1.7409015
-4.3239737 -2.437253 1.8759701
-4.2940722 -2.4324272 2.0097797
-4.2389097 -2.4342375 2.1333661
-4.1719985 -2.4390769 2.252861
-4.0874109 -2.4484282 2.3667161
-3.9771261 -2.4642823 2.4730282
-3.8401084 -2.486805 2.5726016
-3.6638546 -2.5190725 2.6627641
-3.377795 -2.5787859 2.7246161
-4.1882687 -2.6948388 0.89940095
-4.3077259 -2.6462765 1.1160092
-4.3591099 -2.6175668 1.2944329
-4.3943534 -2.5937216 1.4620868
-4.390058 -2.5812395 1.6093895
-4.3854461 -2.5689776 1.7551283
-4.3515124 -2.564997 1.8873519
-4.3161993 -2.5614402 2.0185766
-4.2632699 -2.5627682 2.1426711
-4.2021141 -2.566335 2.2638998
-4.1277137 -2.5734732 2.3808734
-4.0334878 -2.5859118 2.4919748
-3.9256532 -2.6018937 2.6000781
-3.7830722 -2.6270366 2.6992912
-3.5950663 -2.6640534 2.7880006
-3.3001647 -2.7290931 2.8511019
-3.5383 -3.033092 0.56703031
-3.246789 -3.1044488 0.5912891
-3.007617 -3.1593959 0.64844805
-2.8172684 -3.1992404 0.7341789
-2.6567538 -3.2298393 0.83755082
-2.5402498 -3.2471654 0.96313983
-2.2995672 -3.3006616 1.0392795
-2.2213728 -3.3062842 1.1857734
-2.1696663 -3.3041749 1.3429853
-2.1301644 -3.2985694 1.5044473
-2.2729366 -3.2407565 1.7293432
-2.293824 -3.2183032 1.9071718
-2.343122 -3.1880133 2.0917711
-2.4492979 -3.1419663 2.2906365
-2.6156926 -3.0794599 2.5022883
0 0 0 1 0 0 0 1 0 0 0 1 0 0 0 0 0 590 1 0 0
