ply
format ascii 1.0
comment PCL generated
element vertex 414
property float x
property float y
property float z
element camera 1
property float view_px
property float view_py
property float view_pz
property float x_axisx
property float x_axisy
property float x_axisz
property float y_axisx
property float y_axisy
property float y_axisz
property float z_axisx
property float z_axisy
property float z_axisz
property float focal
property float scalex
property float scaley
property float centerx
property float centery
property int viewportx
property int viewporty
property float k1
property float k2
end_header
0.013309112 -2.503233 -1.6364613
0.16755329 -2.5605726 -1.8809521
-0.80009419 -2.264951 -1.326493
-0.60696805 -2.4016666 -1.8763992
-0.43870732 -2.4806471 -2.1940799
-0.28137437 -2.5404658 -2.4346867
-0.13134287 -2.5887823 -2.6290283
0.013309199 -2.6304049 -2.7964458
0.15369685 -2.6653733 -2.9370971
0.29058614 -2.6967964 -3.063489
0.4268015 -2.7113018 -3.1218343
0.52314341 -2.8976059 -3.8711977
0.65288538 -2.8894043 -3.8382092
0.78528923 -2.8759665 -3.7841587
0.9191817 -2.8625498 -3.7301931
1.0535114 -2.8515058 -3.6857705
1.1895472 -2.839509 -3.637517
-1.1512918 -2.0432358 -1.1192
-0.93335861 -2.205622 -1.7370036
-0.74805874 -2.3096323 -2.1327143
-0.57886881 -2.3895464 -2.436749
-0.42041808 -2.4550929 -2.6861234
-0.26999691 -2.5103235 -2.8962502
-0.12578107 -2.5587494 -3.0804873
0.013308961 -2.6021972 -3.2457871
0.14799435 -2.641983 -3.3971524
0.26611593 -2.7984798 -3.9925494
0.39319932 -2.7941952 -3.9762485
0.52344048 -2.7771349 -3.9113426
0.65543211 -2.7602859 -3.8472395
0.78828537 -2.7463374 -3.7941728
0.92231071 -2.7332118 -3.744235
1.057709 -2.7201245 -3.6944437
1.1935275 -2.7090621 -3.6523566
1.3293844 -2.7001405 -3.6184146
1.4666526 -2.6904168 -3.5814199
-1.2969102 -1.9392598 -1.364139
-1.0826402 -2.0823002 -1.8801309
-0.89421266 -2.1876085 -2.2600093
-0.72162378 -2.2722254 -2.565249
-0.56024247 -2.3435874 -2.8226748
-0.4074609 -2.4056802 -3.0466633
-0.26167819 -2.4604731 -3.2443173
-0.12200491 -2.5037007 -3.4002533
0.013309021 -2.5435083 -3.5438511
0.13877739 -2.6989384 -4.1045361
0.26541629 -2.6873307 -4.0626636
0.39451987 -2.6671715 -3.9899435
0.52448642 -2.652813 -3.9381466
0.65568513 -2.6393118 -3.8894434
0.78828537 -2.6256771 -3.8402607
0.92231071 -2.6119027 -3.7905712
1.0578001 -2.5979424 -3.7402124
1.1947632 -2.5838361 -3.6893268
1.3332214 -2.5695879 -3.6379287
1.4707317 -2.5596375 -3.602035
1.6075281 -2.5525265 -3.5763826
-1.4748986 -1.7534766 -1.3101901
-1.2461429 -1.9180329 -1.8742626
-1.0498252 -2.0333824 -2.2696624
-0.87129956 -2.1256087 -2.5857983
-0.70522785 -2.203006 -2.851104
-0.54870206 -2.2695465 -3.0791943
-0.39971676 -2.3282568 -3.2804432
-0.2569668 -2.3809466 -3.4610558
-0.11951141 -2.4290681 -3.626008
0.013309199 -2.582655 -4.1524792
0.13866724 -2.5840163 -4.1571445
0.2662203 -2.5612311 -4.0790405
0.39467227 -2.5474133 -4.0316753
0.52448642 -2.5334311 -3.9837465
0.65568513 -2.5192938 -3.935286
0.78828537 -2.505017 -3.886349
0.92231071 -2.4905934 -3.8369069
1.0578001 -2.4759758 -3.7867997
1.1947632 -2.461205 -3.7361677
1.3332214 -2.4462852 -3.6850262
1.4731925 -2.4312215 -3.633389
1.6124585 -2.419889 -3.5945437
1.7502234 -2.4126973 -3.569891
-1.9998238 -0.81879002 1.1772869
-1.4228315 -1.7245361 -1.7789026
-1.2144748 -1.8568585 -2.2107785
-1.0274788 -1.9607725 -2.5499351
-0.8546229 -2.0481894 -2.8352475
-0.69252443 -2.1238863 -3.0823085
-0.53902268 -2.1908007 -3.3007054
-0.39264032 -2.2508307 -3.4966321
-0.25247505 -2.3034358 -3.6683257
-0.11746334 -2.3494294 -3.81844
0.013309438 -2.4838786 -4.2572584
0.13900919 -2.4594874 -4.1776495
0.2662203 -2.4430997 -4.1241627
0.39467227 -2.4286604 -4.077035
0.52448642 -2.4140489 -4.0293465
0.65568513 -2.3992758 -3.9811289
0.78828537 -2.384357 -3.9324369
0.92231071 -2.3692842 -3.8832431
1.0578001 -2.3540089 -3.8333869
1.1947632 -2.3385735 -3.7830086
1.3332214 -2.3229828 -3.7321234
1.4731925 -2.307241 -3.6807451
1.6147072 -2.2913322 -3.6288214
1.7532268 -2.2828701 -3.6012025
-1.6248477 -1.4794049 -1.5367613
-1.3957002 -1.6436973 -2.0482581
-1.1958162 -1.7662753 -2.4298851
-1.0134836 -1.867126 -2.7438674
-0.84407908 -1.9528284 -3.0106878
-0.68467087 -2.0275621 -3.2433591
-0.53338033 -2.0937331 -3.4493713
-0.3888106 -2.1533127 -3.6348619
-0.24995588 -2.207798 -3.8044939
-0.11134188 -2.3658161 -4.2964573
0.013309021 -2.3626268 -4.2865281
0.13910605 -2.3398724 -4.2156858
0.2662203 -2.3249683 -4.1692848
0.39467227 -2.3099074 -4.1223946
0.52448642 -2.294667 -4.0749459
0.65568513 -2.2792578 -4.0269718
0.78828537 -2.2636967 -3.9785252
0.92231071 -2.2479753 -3.929579
1.0578001 -2.2320423 -3.8799739
1.1947632 -2.2159424 -3.8298497
1.3332214 -2.1996803 -3.7792208
1.4731925 -2.1832609 -3.7281013
1.6147072 -2.166667 -3.6764393
1.7568018 -2.1516166 -3.6295817
1.8939158 -2.1467676 -3.6144853
-2.1781619 -0.4918918 0.88718843
-1.5897608 -1.4090614 -1.8411949
-1.3729656 -1.5569782 -2.2812157
-1.1787822 -1.6752628 -2.6330872
-1.0006649 -1.7732539 -2.9245896
-0.83423769 -1.8579926 -3.1766691
-0.67728257 -1.9319792 -3.3967628
-0.527955 -1.9980211 -3.5932236
-0.38504222 -2.0576994 -3.7707539
-0.24766414 -2.111836 -3.9317985
-0.11070429 -2.2643862 -4.385602
0.013309199 -2.2409549 -4.3158998
0.13910605 -2.2223563 -4.2605734
0.2662203 -2.2068372 -4.214407
0.39467227 -2.1911545 -4.1677542
0.52448642 -2.1752851 -4.1205459
0.65568513 -2.1592398 -4.0728145
0.78828537 -2.1430364 -4.0246134
0.92231071 -2.1266661 -3.975915
1.0578001 -2.1100755 -3.9265611
1.1947632 -2.0933108 -3.8766906
1.3332214 -2.0763779 -3.8263183
1.4731925 -2.0592804 -3.7754576
1.6147072 -2.0420017 -3.7240572
1.7577986 -2.0245237 -3.6720641
1.8964996 -2.0169315 -3.6494784
-2.1683109 -0.32772338 0.7536366
-1.5795362 -1.2843587 -1.9697132
-1.3656906 -1.4328922 -2.3925581
-1.1735961 -1.551944 -2.7314749
-0.99667591 -1.6518983 -3.0160246
-0.83114237 -1.7386733 -3.2630558
-0.67468673 -1.8156745 -3.4822631
-0.52581072 -1.8847481 -3.6789017
-0.38330796 -1.9478211 -3.858458
-0.24643962 -2.0049396 -4.0210629
-0.11063175 -2.1503234 -4.4349413
0.013308961 -2.120863 -4.3510733
0.13910605 -2.1048403 -4.30546
0.2662203 -2.088706 -4.2595291
0.39467227 -2.0724015 -4.2131138
0.52448642 -2.055903 -4.1661458
0.65568513 -2.0392218 -4.1186571
0.78828537 -2.0223761 -4.0707016
0.92231071 -2.0053568 -4.0222511
1.0578001 -1.9881086 -3.9731483
1.1947632 -1.9706796 -3.9235315
1.3332214 -1.9530753 -3.8734155
1.4731925 -1.9353004 -3.822814
1.6147072 -1.9173367 -3.7716751
1.7577986 -1.899166 -3.7199464
1.898262 -1.8881903 -3.6887007
-2.3795805 -0.11502147 0.75769925
-1.8157461 -0.9576847 -1.5412681
-1.5700285 -1.1597416 -2.0925231
-1.3584994 -1.3100805 -2.5026801
-1.1684545 -1.4296939 -2.8290114
-0.99270505 -1.5315411 -3.1068728
-0.82809252 -1.6201236 -3.3485446
-0.67242354 -1.6986448 -3.5627673
-0.52415985 -1.7693387 -3.7556357
-0.38217285 -1.8339416 -3.9318864
-0.24555711 -1.8948406 -4.098032
-0.11066316 -2.0337374 -4.4769726
0.013308961 -2.0039577 -4.3957272
0.13910605 -1.9873242 -4.3503475
0.2662203 -1.9705747 -4.3046513
0.39467227 -1.9536488 -4.2584734
0.52448642 -1.9365212 -4.2117453
0.65568513 -1.9192038 -4.1645002
0.78828537 -1.901716 -4.1167893
0.92231071 -1.8840477 -4.0685868
1.0578001 -1.8661418 -4.0197353
1.1947632 -1.8480483 -3.9703727
1.3332214 -1.8297727 -3.9205132
1.4731925 -1.8113201 -3.8701701
1.6147072 -1.7926716 -3.8192928
1.7577986 -1.773808 -3.7678289
1.8991873 -1.7607322 -3.7321551
-2.3795288 0.071146011 0.68624902
-1.8152797 -0.80347037 -1.6035261
-1.5696397 -1.0128561 -2.1517053
-1.3581593 -1.1686862 -2.5596733
-1.1681713 -1.2926316 -2.8841667
-0.99247295 -1.39816 -3.1604438
-0.82787794 -1.4900661 -3.4010568
-0.6722644 -1.5713671 -3.6139059
-0.52404392 -1.6445811 -3.8055823
-0.38208553 -1.711561 -3.980938
-0.24547611 -1.7749958 -4.1470127
-0.11066972 -1.9177506 -4.5207491
0.013308961 -1.8870525 -4.4403811
0.13910605 -1.8698082 -4.3952346
0.2662203 -1.8524435 -4.3497734
0.39467227 -1.8348958 -4.303833
0.52448642 -1.8171393 -4.2573452
0.65568513 -1.7991859 -4.2103429
0.78828537 -1.7810557 -4.1628776
0.92231071 -1.7627387 -4.114923
1.0578001 -1.744175 -4.0663228
1.1947632 -1.725417 -4.0172138
1.3332214 -1.7064703 -3.9676104
1.4731925 -1.6873398 -3.9175262
1.6147072 -1.6680064 -3.8669107
1.7577986 -1.64845 -3.8157115
1.8992558 -1.6347644 -3.779882
-2.1681859 0.22778738 0.54055285
-1.5791605 -0.83898616 -2.1428001
-1.3653359 -1.0045602 -2.5592835
-1.1733104 -1.1371295 -2.8927472
-0.99644488 -1.2484435 -3.1727455
-0.83091515 -1.345276 -3.416317
-0.67452937 -1.4309087 -3.6317167
-0.52569634 -1.5078037 -3.8251376
-0.38322088 -1.5781047 -4.0019722
-0.24637805 -1.6418035 -4.1622
-0.11062877 -1.803053 -4.5678053
0.013308961 -1.7701474 -4.4850349
0.13910605 -1.7522922 -4.4401217
0.2662203 -1.7343123 -4.3948956
0.39467227 -1.7161429 -4.3491926
0.52448642 -1.6977574 -4.3029451
0.65568513 -1.679168 -4.2561855
0.78828537 -1.6603954 -4.2089658
0.92231071 -1.6414294 -4.1612587
1.0578001 -1.6222082 -4.1129098
1.1947632 -1.6027857 -4.0640545
1.3332214 -1.5831678 -4.0147076
1.4731925 -1.5633596 -3.9648826
1.6147072 -1.5433413 -3.9145286
1.7577986 -1.523092 -3.8635941
1.8983301 -1.5107268 -3.8324904
-2.1780751 0.43843651 0.53121114
-1.5891626 -0.66197842 -2.1312864
-1.3726152 -0.83862281 -2.5586843
-1.1784974 -0.98025757 -2.9013753
-1.0004268 -1.0976254 -3.1853516
-0.83399564 -1.1993355 -3.4314432
-0.67681164 -1.2895088 -3.649621
-0.52758896 -1.3685613 -3.8408916
-0.38476673 -1.4400792 -4.0139318
-0.24748795 -1.5048394 -4.1706219
-0.11068182 -1.6857784 -4.6084108
0.013308842 -1.6565349 -4.5376554
0.13910605 -1.6347761 -4.4850092
0.2662203 -1.616181 -4.4400177
0.39467227 -1.5973901 -4.3945522
0.52448642 -1.5783753 -4.3485451
0.65568513 -1.55915 -4.3020287
0.78828537 -1.5397352 -4.2550535
0.92231071 -1.5201204 -4.2075949
1.0578001 -1.5002415 -4.1594973
1.1947632 -1.4801544 -4.1108956
1.3332214 -1.4598652 -4.0618052
1.4731925 -1.4393793 -4.012239
1.6147072 -1.4186761 -3.9621463
1.7577986 -1.397734 -3.9114766
1.8967013 -1.3882316 -3.888485
-1.6234052 -0.41238707 -1.9557331
-1.3944635 -0.62395024 -2.4486384
-1.1949164 -0.78121585 -2.8150403
-1.0126743 -0.9112972 -3.1181073
-0.84345382 -1.0214285 -3.3746943
-0.68415791 -1.117708 -3.5990088
-0.53299493 -1.2028148 -3.7972929
-0.38853475 -1.2794821 -3.9759145
-0.2497804 -1.3495872 -4.1392474
-0.11122482 -1.5541072 -4.6157436
0.013309378 -1.5460479 -4.5969667
0.13910605 -1.5172601 -4.5298958
0.2662203 -1.4980497 -4.4851398
0.39467227 -1.4786372 -4.4399118
0.52448642 -1.4589934 -4.394145
0.65568513 -1.439132 -4.3478713
0.78828537 -1.419075 -4.3011417
0.92231071 -1.3988112 -4.253931
1.0578001 -1.3782747 -4.2060843
1.1947632 -1.3575231 -4.1577368
1.3332214 -1.3365626 -4.1089025
1.4731925 -1.3153992 -4.0595951
1.6147072 -1.294011 -4.0097642
1.7569878 -1.2741953 -3.9635973
1.8939803 -1.2682294 -3.9496977
-1.9995172 0.8728379 0.52871394
-1.4216042 -0.38703835 -2.3005681
-1.2159351 -0.56103021 -2.6912985
-1.0291879 -0.70335388 -3.0109124
-0.85399795 -0.83512783 -3.3068347
-0.69202715 -0.94001615 -3.5423808
-0.53863472 -1.0327806 -3.7507
-0.39236447 -1.1159151 -3.9373937
-0.25216505 -1.1908064 -4.1055756
-0.1173005 -1.2548534 -4.2494049
0.013308961 -1.4359332 -4.6560526
0.13904019 -1.4017287 -4.5792408
0.2662203 -1.3799186 -4.530262
0.39467227 -1.3598843 -4.4852715
0.52448642 -1.3396115 -4.4397449
0.65568513 -1.319114 -4.393714
0.78828537 -1.2984147 -4.34723
0.92231071 -1.2775021 -4.3002667
1.0578001 -1.2563078 -4.2526712
1.1947632 -1.2348918 -4.2045774
1.3332214 -1.2132602 -4.1560001
1.4731925 -1.1914189 -4.1069512
1.6147072 -1.1693457 -4.0573821
1.7535337 -1.1568942 -4.0294199
-1.4721148 -0.063892066 -1.9800215
-1.2494355 -0.28750592 -2.4645038
-1.0572541 -0.43977463 -2.7944093
-0.87665534 -0.58287603 -3.1044531
-0.70698375 -0.71538377 -3.3915448
-0.547975 -0.83139729 -3.6429
-0.39919257 -0.91894799 -3.8325872
-0.25663683 -0.99740291 -4.0025682
-0.11935495 -1.0690758 -4.1578541
0.013309378 -1.301158 -4.6606846
0.13869752 -1.2949064 -4.6471395
0.2662203 -1.2617873 -4.5753841
0.39467227 -1.2411314 -4.5306311
0.52448642 -1.2202296 -4.4853449
0.65568513 -1.1990961 -4.4395571
0.78828537 -1.1777545 -4.3933182
0.92231071 -1.156193 -4.3466024
1.0578001 -1.1343411 -4.2992582
1.1947632 -1.1122605 -4.2514186
1.3332214 -1.0899576 -4.2030973
1.4731925 -1.0674386 -4.1543074
1.6127388 -1.0497719 -4.1160307
1.7500387 -1.0401869 -4.0952635
-1.2946602 0.040700436 -2.142663
-1.093001 -0.13361949 -2.5073655
-0.90580541 -0.2889697 -2.8323801
-0.72996134 -0.43386757 -3.1355271
-0.5642463 -0.57024682 -3.4208519
-0.40777534 -0.69901812 -3.6902599
-0.26131979 -0.79644692 -3.8940945
-0.12174492 -0.86872727 -4.0453153
0.013309021 -0.93224943 -4.1782131
0.13871552 -1.1771913 -4.6906662
0.26549211 -1.1552942 -4.6448545
0.39463362 -1.1227887 -4.5768485
0.52448642 -1.1008477 -4.5309448
0.65568513 -1.0790781 -4.4853997
0.78828537 -1.0570943 -4.4394064
0.92231071 -1.0348839 -4.3929386
1.0578001 -1.0123743 -4.3458457
1.1947632 -0.98962915 -4.2982597
1.3332214 -0.96665508 -4.2501945
1.4710698 -0.94962853 -4.2145729
1.6079106 -0.9381265 -4.1905088
-1.1484494 0.27469671 -2.0366964
-0.95109093 0.10251319 -2.384836
-0.76613575 -0.056909442 -2.7071741
-0.59235364 -0.20411873 -3.0048184
-0.42818788 -0.34397751 -3.2876008
-0.27287513 -0.47803605 -3.5586545
-0.12597997 -0.60317975 -3.8116841
0.013309199 -0.69376844 -3.9948463
0.14776294 -0.76231897 -4.1334496
0.26576856 -1.0329564 -4.6806536
0.39330772 -1.0185902 -4.6516066
0.52361315 -0.98864979 -4.5910702
0.65564358 -0.95933455 -4.5317974
0.78828537 -0.93643409 -4.4854946
0.92231071 -0.9135747 -4.4392748
1.0578001 -0.8904075 -4.3924332
1.1938628 -0.87029064 -4.351758
1.3297533 -0.85476494 -4.3203669
1.4666009 -0.83920002 -4.2888956
-0.82413316 0.48127663 -1.9951282
-0.63800287 0.32355273 -2.303566
-0.46186721 0.17343366 -2.5971322
-0.29539478 0.03669858 -2.8645253
-0.13720798 -0.093082309 -3.118319
0.013309289 -0.22000653 -3.3665266
0.15666465 -0.3354435 -3.5922697
0.29545721 -0.41266108 -3.7432733
0.4370878 -0.40638113 -3.7309923
0.52270299 -0.87717098 -4.6516476
0.65310246 -0.85652113 -4.6112661
0.78555483 -0.83117533 -4.5617008
0.9194864 -0.80591989 -4.5123124
1.0538477 -0.78515869 -4.4717131
1.1893698 -0.7646482 -4.4316034
0 0 0 1 0 0 0 1 0 0 0 1 0 0 0 0 0 414 1 0 0
