ply
format ascii 1.0
comment PCL generated
element vertex 457
property float x
property float y
property float z
element camera 1
property float view_px
property float view_py
property float view_pz
property float x_axisx
property float x_axisy
property float x_axisz
property float y_axisx
property float y_axisy
property float y_axisz
property float z_axisx
property float z_axisy
property float z_axisz
property float focal
property float scalex
property float scaley
property float centerx
property float centery
property int viewportx
property int viewporty
property float k1
property float k2
end_header
-0.2901755 2.6031775 3.062614
-0.13729285 2.6225934 3.1454008
0.01330908 2.6230254 3.147243
0.16426827 2.6165156 3.1194866
0.31633982 2.6070418 3.0790908
0.47363397 2.574245 2.9392488
0.87533921 3.0900903 5.1387553
1.0021098 3.0823774 5.1058702
1.1317992 3.0708566 5.0567451
-0.78388351 2.3231874 2.5607347
-0.5871281 2.4907568 3.2347431
-0.43209985 2.5202084 3.3532045
-0.28244242 2.5308754 3.396111
-0.13434759 2.5348105 3.4119384
0.01330908 2.5358911 3.4162855
0.16133407 2.5281935 3.385324
0.31050658 2.5178912 3.3438849
0.46198544 2.5006456 3.2745197
0.49882507 3.006808 5.3104377
0.62027478 3.0065548 5.3094196
0.74570912 2.9944561 5.2607555
0.87491983 2.9761255 5.1870246
1.005589 2.9591022 5.1185536
1.134878 2.9486165 5.0763755
1.2627614 2.9427519 5.0527868
1.3926078 2.9347486 5.020596
1.528728 2.9186888 4.9559994
-0.9054423 2.29354 3.07149
-0.72923243 2.3807826 3.4034069
-0.57531494 2.4063349 3.500622
-0.4257538 2.4214854 3.5582619
-0.27844623 2.4304907 3.5925233
-0.13249983 2.431782 3.5974355
0.013309438 2.4297142 3.5895691
0.15940481 2.4263773 3.5768747
0.30664402 2.4155712 3.5357618
0.37451461 2.9118819 5.4239912
0.49626121 2.9055324 5.3998337
0.64358157 2.8050704 5.0176229
0.77830374 2.7777727 4.9137683
0.9126687 2.7592392 4.8432574
1.0449015 2.7503757 4.809536
1.1764379 2.7449431 4.7888675
1.3053911 2.7454786 4.790904
1.4336519 2.7471051 4.7970934
1.5324497 2.7948565 4.9787645
1.6610734 2.7919073 4.9675441
-1.0622227 2.1401393 3.0887737
-0.87541378 2.2497406 3.4841394
-0.71848321 2.2846808 3.6101804
-0.56787306 2.3057597 3.686218
-0.4211911 2.3149242 3.7192769
-0.27587008 2.3197575 3.7367127
-0.13105129 2.3242989 3.7530949
0.013308901 2.3245821 3.7541165
0.15776199 2.3224707 3.7465
0.25288519 2.8115811 5.5108728
0.37395468 2.8031092 5.4803128
0.52157742 2.6672354 4.9901733
0.6608417 2.6188593 4.8156667
0.79867387 2.5913439 4.7164097
0.93427962 2.5779958 4.6682582
1.0664542 2.5764894 4.6628251
1.1957831 2.5815897 4.6812229
1.3236084 2.5886497 4.7066898
1.450913 2.5953655 4.7309175
1.5759144 2.6047683 4.7648358
1.6736361 2.6543372 4.9436455
1.7979602 2.6591434 4.9609838
-1.2333535 1.9512274 2.9880478
-1.024014 2.1099477 3.5321147
-0.86363739 2.1521249 3.676692
-0.71154159 2.1767848 3.7612214
-0.56361049 2.1921563 3.8139126
-0.41791794 2.2022786 3.8486099
-0.27340659 2.2102623 3.875977
-0.12982361 2.2149293 3.8919752
0.01330905 2.2196121 3.9080269
0.13295098 2.7027123 5.5640159
0.25222448 2.7065358 5.5771227
0.39608458 2.5376344 4.9981551
0.7266894 1.4837753 1.3856974
0.71445769 2.2752166 4.0986295
0.8440609 2.3119931 4.2246933
0.9689337 2.352293 4.3628359
1.0934058 2.3835583 4.4700074
1.2196798 2.4037185 4.539113
1.3439779 2.4239488 4.6084595
1.4675541 2.4418654 4.6698751
1.5917969 2.4556403 4.7170935
1.715596 2.4680064 4.7594824
1.8094716 2.5229867 4.9479456
1.9364462 2.5248172 4.9542208
-1.4319667 1.7025121 2.7070205
-1.1894193 1.9248166 3.4325814
-1.0126743 2.0066633 3.6997147
-0.85611147 2.0428052 3.8176751
-0.70599467 2.0654314 3.8915224
-0.55997694 2.0771298 3.9297042
-0.41526935 2.0871592 3.9624376
-0.27149147 2.0971165 3.9949362
-0.12862043 2.1073329 4.0282812
0.01330914 2.1213794 4.0741267
0.13221277 2.6069608 5.6589756
0.26687756 2.4359682 5.1008863
0.56730038 1.1800644 1.0018466
0.73868436 1.252104 1.2369709
0.90284163 1.3266869 1.4803953
1.0593923 1.403918 1.7324641
1.0134791 2.0866795 3.9608729
1.1298101 2.1586933 4.1959124
1.2452133 2.2169404 4.3860197
1.3652909 2.2533953 4.5050025
1.4860985 2.2817824 4.5976524
1.606348 2.3064475 4.6781559
1.7277653 2.3253684 4.7399092
1.8501608 2.3400707 4.7878952
1.9404194 2.3993015 4.9812136
-1.9267322 0.79615629 0.40957832
-1.384838 1.6710131 3.1333022
-1.1693407 1.8411767 3.6630785
-1.0052471 1.8937569 3.8267782
-0.85149401 1.9248587 3.9236085
-0.70307803 1.9442408 3.9839516
-0.55731779 1.9582901 4.0276918
-0.4128378 1.9720453 4.0705161
-0.26975852 1.983705 4.1068172
-0.12747027 2.0007782 4.1599712
0.013308901 2.4878049 5.6762495
0.13215311 2.4972405 5.705626
0.3948389 0.86946523 0.63781333
0.57522285 0.94778717 0.88165617
0.74817801 1.0289779 1.1344299
0.91347331 1.1123657 1.3940442
1.0707097 1.1983563 1.661762
1.2196213 1.2866961 1.9367936
1.1616758 1.9381678 3.965044
1.2734766 2.0179987 4.2135844
1.3853314 2.0817399 4.4120321
1.5019566 2.1240783 4.5438461
1.620851 2.1550798 4.6403646
1.7404749 2.1800418 4.7180791
1.8601435 2.2013659 4.7844677
1.9535491 2.2594728 4.9653754
2.0762248 2.2689137 4.9947672
-1.6167377 1.3454852 2.6520693
-1.3518304 1.6123219 3.4458513
-1.1593705 1.7324473 3.8031983
-0.99900049 1.7788575 3.9412591
-0.84737486 1.8063917 4.0231671
-0.70038098 1.8231101 4.0729012
-0.55520874 1.8374497 4.1155581
-0.41127065 1.8516585 4.1578264
-0.2684249 1.8671998 4.2040586
-0.12606712 1.9023349 4.308578
0.01330908 2.3944547 5.7725286
0.20906653 0.57360923 0.35590339
0.39815941 0.6521368 0.58950615
0.58025634 0.73326659 0.83085012
0.75507593 0.81671351 1.0790868
0.9222374 0.90287495 1.3353984
1.0814922 0.99137342 1.5986624
1.2324008 1.0826842 1.8702924
1.3745993 1.1768275 2.1503489
1.2965984 1.8266506 4.0834332
1.4042554 1.9089718 4.328321
1.5160823 1.9673914 4.5021071
1.6315182 2.008986 4.6258421
1.7490561 2.0403728 4.7192116
1.8681225 2.064702 4.7915854
1.9887171 2.0833859 4.8471651
2.077281 2.1469126 5.0361438
-2.1110458 0.4552744 0.60947537
-1.5932882 1.2506645 2.8737919
-1.3420919 1.4971364 3.5754488
-1.156132 1.6054306 3.8837407
-0.99706036 1.6505538 4.0121975
-0.84583551 1.6786717 4.0922432
-0.69891292 1.6969602 4.1443071
-0.55375296 1.7135935 4.1916585
-0.40997005 1.7300694 4.2385626
-0.26706362 1.7522819 4.3017969
-0.12461616 1.8076862 4.4595222
0.013309319 2.2870221 5.8240957
0.2106386 0.35220736 0.31606412
0.40102676 0.43724835 0.55815887
0.58416963 0.52476645 0.80730534
0.75976735 0.6147449 1.0634561
0.92750984 0.70722115 1.3267175
1.0870975 0.80217093 1.5970206
1.2382058 0.89967394 1.8745922
1.3805771 0.99955773 2.1589415
1.3113642 1.6532508 4.019875
1.4191358 1.742575 4.2741632
1.5277722 1.8137313 4.4767308
1.6409732 1.8637086 4.6190066
1.7566798 1.9012744 4.7259488
1.8741144 1.9304492 4.8090038
1.9932103 1.9530214 4.8732619
2.0803504 2.0217047 5.06879
-2.1041238 0.29086888 0.72205067
-1.5750525 1.1469634 3.0576613
-1.332502 1.3835523 3.7031269
-1.1529815 1.4788897 3.9632282
-0.995166 1.5225987 4.0824761
-0.84461224 1.5500941 4.1574888
-0.69802791 1.5683947 4.2074165
-0.55305332 1.5856102 4.2543845
-0.40945035 1.6026719 4.3009329
-0.26652461 1.6281834 4.3705335
-0.12387042 1.6978071 4.560482
0.013309021 2.1786175 5.8722363
0.21118708 0.15392447 0.34843659
0.40213981 0.24200034 0.58872652
0.5858624 0.3326537 0.8360486
0.76203573 0.42598498 1.0906763
0.93037552 0.52184045 1.352191
1.0905415 0.62038648 1.6210458
1.2422765 0.72141582 1.8966755
1.3851936 0.82522339 2.1798851
1.3174199 1.5014038 4.0246515
1.4251027 1.5960698 4.2829208
1.5320208 1.6752918 4.4990554
1.6444304 1.7296704 4.6474123
1.7597563 1.7699769 4.7573767
1.8769038 1.8012167 4.8426061
1.9959302 1.8251042 4.9077764
2.0829322 1.8969157 5.1036935
-2.1040137 0.11131114 0.79142976
-1.5743973 1.0003107 3.1188607
-1.3320044 1.2453182 3.7602987
-1.1528251 1.3432157 4.0165977
-0.99504834 1.3884586 4.1350451
-0.8445369 1.4168504 4.2093759
-0.69797522 1.4357715 4.2589116
-0.55300981 1.4536264 4.3056564
-0.40941682 1.4713216 4.3519831
-0.26648965 1.4979339 4.4216547
-0.12381993 1.5709914 4.6129222
0.013309199 2.068347 5.9150162
0.21119173 -0.031058431 0.41870165
0.40215185 0.060220718 0.65767336
0.58588475 0.15417552 0.90365028
0.76207387 0.25087494 1.1568127
0.93043226 0.35019636 1.4168394
1.0906117 0.4523595 1.684306
1.2423892 0.55698061 1.9582076
1.3853378 0.6645503 2.2398286
1.3176994 1.3652216 4.0742097
1.4254192 1.463349 4.331111
1.5323122 1.5456169 4.5464907
1.6446862 1.6021284 4.6944399
1.7599723 1.64404 4.8041658
1.8771362 1.6764269 4.8889556
1.9961433 1.7012563 4.9539595
2.0831592 1.7757046 5.1488686
-2.1109498 -0.085717797 0.81680799
-1.5923525 0.80296737 3.0521986
-1.3415982 1.0765742 3.740427
-1.1559561 1.1963586 4.0417314
-0.99694139 1.2465051 4.1678696
-0.84576279 1.27771 4.2463617
-0.69885993 1.2980471 4.2975178
-0.55370945 1.3165903 4.344161
-0.40993667 1.3349575 4.3903618
-0.26703003 1.3598714 4.4530301
-0.12449341 1.4244919 4.6155758
0.013308961 1.9556572 5.9516649
0.21064331 -0.20094693 0.52696157
0.40104195 -0.10624802 0.76516604
0.58419114 -0.0087124109 1.0105066
0.75980967 0.091462851 1.2624865
0.92757267 0.1944626 1.5215712
1.0871601 0.30033499 1.7878816
1.2383262 0.40880722 2.0607316
1.3807209 0.52009422 2.340662
1.3123044 1.2461969 4.1670942
1.4201208 1.3459003 4.4178877
1.5282085 1.4268013 4.6213851
1.6412039 1.4830531 4.7628803
1.7569033 1.5249722 4.8683233
1.8743329 1.5575271 4.9502115
1.9934222 1.582721 5.0135841
2.0805242 1.6593512 5.2063389
-1.6139326 0.59203339 2.9620514
-1.3513299 0.90540582 3.7202687
-1.1591784 1.0484478 4.0663643
-0.99887902 1.1038679 4.2004557
-0.84715682 1.1373962 4.2815785
-0.70022249 1.1572938 4.3297215
-0.5550788 1.1744986 4.3713493
-0.41116977 1.1915563 4.412621
-0.268347 1.2103306 4.458046
-0.12599181 1.2534548 4.562387
0.013308842 1.8413552 5.9848356
0.20908512 -0.34127319 0.70387888
0.39819834 -0.24720132 0.93148994
0.58034188 -0.15024555 1.1660781
0.75520754 -0.050387859 1.4076877
0.92242831 0.052700877 1.6571151
1.0817257 0.15871906 1.9136301
1.2327838 0.26767987 2.1772652
1.3750671 0.38037497 2.4499354
1.297514 1.1577711 4.3308764
1.4052089 1.2565869 4.5699654
1.5168715 1.3272517 4.740941
1.6322554 1.3773834 4.862237
1.7497337 1.415252 4.9538617
1.8687699 1.4445689 5.0247955
1.9892988 1.4671657 5.0794687
2.0776176 1.5437857 5.2648544
-1.9262769 -0.47114909 0.89724636
-1.383045 0.66096067 3.5348663
-1.1686593 0.87696147 4.0381112
-1.004841 0.9439432 4.1941667
-0.85121733 0.98368233 4.2867522
-0.70291555 1.0082705 4.3440385
-0.55718827 1.0263712 4.38621
-0.41274041 1.044103 4.4275217
-0.26965076 1.0597571 4.4639931
-0.12737574 1.0829449 4.5180168
0.013309319 1.7119577 5.9835081
0.13216223 1.7198359 6.001863
0.39490262 -0.37890661 1.1121554
0.57530606 -0.2778486 1.3476031
0.74794912 -0.17071712 1.5972011
0.91291481 -0.061649203 1.85131
1.0709989 0.044522882 2.0986729
1.2200186 0.15813524 2.3633699
1.1630905 0.99433339 4.3115673
1.2751374 1.0970037 4.5507712
1.3866918 1.1805782 4.7454853
1.5032375 1.2357203 4.8739572
1.6220059 1.2762684 4.9684272
1.7411129 1.3098186 5.0465937
1.8607326 1.3375069 5.1111026
1.9818583 1.3585751 5.1601877
2.0760715 1.426079 5.3174601
-1.4292992 0.36129773 3.242763
-1.1879071 0.66650707 3.9281664
-1.0122298 0.77628946 4.1747026
-0.85582501 0.82595897 4.2862444
-0.70581156 0.85701662 4.3559904
-0.5597685 0.87371892 4.3934979
-0.41511002 0.88765764 4.4247999
-0.27138516 0.90148449 4.4558506
-0.12856166 0.91582429 4.4880538
0.013308931 0.93786383 4.5375471
0.13218905 1.6079931 6.0424447
0.26797822 1.353456 5.4708352
0.56547302 -0.35416925 1.6360512
0.73595232 -0.25199485 1.8655026
0.90008265 -0.15246046 2.0890255
1.0583169 -0.056519866 2.3044772
1.0154433 0.87695062 4.4007554
1.1321522 0.97650176 4.6243157
1.2471244 1.0597374 4.8112364
1.3669555 1.1116986 4.9279251
1.4871564 1.1532013 5.0211267
1.6073983 1.1876836 5.0985627
1.7287452 1.2143006 5.1583366
1.8511009 1.2349479 5.2047033
1.9412415 1.317499 5.3900871
-1.2298541 0.36348301 3.6291158
-1.0229719 0.5917933 4.1237736
-0.86304355 0.65329576 4.2570248
-0.71116292 0.68943936 4.3353338
-0.56338984 0.71177739 4.3837314
-0.41775912 0.72683954 4.4163647
-0.27325919 0.73942107 4.443624
-0.12974931 0.74643624 4.4588227
0.013308901 0.7536236 4.4743953
0.13279952 1.4779859 6.0437999
0.25225314 1.4785616 6.0450478
0.39748064 1.2120713 5.467669
0.7221176 -0.3134048 2.1625695
0.71911067 0.80534643 4.5864582
0.84964645 0.86031008 4.7055426
0.97171026 0.93713814 4.8719983
1.0956894 0.98732722 4.9807377
1.2217524 1.0191772 5.0497441
1.3453629 1.0522683 5.1214395
1.4689392 1.0794401 5.1803098
1.5930458 1.1007123 5.2263985
1.7164972 1.1202757 5.2687845
1.8111405 1.2009165 5.4435015
1.936224 1.207814 5.4584451
-1.059626 0.28607029 3.826314
-0.87462801 0.45511639 4.1799827
-0.71805292 0.51002264 4.2948542
-0.56760359 0.5434109 4.3647075
-0.42095968 0.55850047 4.396277
-0.27572262 0.56618905 4.4123626
-0.13097663 0.57354045 4.427743
0.013309319 0.57459736 4.4299541
0.15767017 0.57113695 4.4227142
0.25274733 1.359048 6.0711365
0.3743166 1.3393312 6.0298858
0.52281255 1.1142318 5.5589461
0.66292459 1.032781 5.3885393
0.80078828 0.99046421 5.3000069
0.9361462 0.97168505 5.2607183
1.0684948 0.96962851 5.2564154
1.197386 0.98031181 5.2787666
1.3251444 0.99248087 5.3042259
1.4520802 1.0048265 5.3300548
1.577105 1.0202085 5.362236
1.6765916 1.0960362 5.5208783
1.7981983 1.1105118 5.5511632
-0.90046066 0.17518306 3.9463131
-0.72834152 0.3056581 4.2101221
-0.5748198 0.34837192 4.2964854
-0.42544532 0.3740651 4.3484349
-0.27827978 0.38910806 4.3788505
-0.13240789 0.3916567 4.3840036
0.013308991 0.38800967 4.3766294
0.1592987 0.38267446 4.3658419
0.30643019 0.3638947 4.3278713
0.37424585 1.2276902 6.0743885
0.49646112 1.2120357 6.0427361
0.64470351 1.0313377 5.6773815
0.77968776 0.9835884 5.5808363
0.91427517 0.95135146 5.5156565
1.0464184 0.93722659 5.4870968
1.1779373 0.92852342 5.4694996
1.3067572 0.93044162 5.4733782
1.4350533 0.93357897 5.4797215
1.5345523 1.0151672 5.6446862
1.6612918 1.0152431 5.6448393
-0.58634192 0.11353242 4.1583104
-0.43167689 0.16714561 4.263154
-0.28214851 0.18744642 4.3028536
-0.13422893 0.1939019 4.3154774
0.01330911 0.19549692 4.3185968
0.16122474 0.18112087 4.2904835
0.31028754 0.16171145 4.2525272
0.46162099 0.12962151 4.1897736
0.49811459 1.0852065 6.0584731
0.62014192 1.0796192 6.0475469
0.74611109 1.0536566 5.9967756
0.8766343 1.0130978 5.9174604
1.0303323 0.88463563 5.6662455
1.1375301 0.95958227 5.812808
1.2641178 0.95391446 5.8017244
1.3931921 0.94162989 5.7777009
1.5273032 0.91718578 5.7298994
-0.28960255 -0.08017385 4.1102328
-0.13708307 -0.043179631 4.1802549
0.013309229 -0.041419983 4.1835852
0.16405822 -0.055586219 4.1567721
0.31584942 -0.073718071 4.1224523
0.47265667 -0.13790739 4.0009575
0.75031483 0.91519713 5.9942369
0.87390095 0.91146302 5.9871693
1.0010496 0.8931731 5.9525509
1.1305137 0.87000239 5.9086943
1.2666955 0.82810444 5.8293915
0 0 0 1 0 0 0 1 0 0 0 1 0 0 0 0 0 457 1 0 0
