ply
format ascii 1.0
comment PCL generated
element vertex 578
property float x
property float y
property float z
element camera 1
property float view_px
property float view_py
property float view_pz
property float x_axisx
property float x_axisy
property float x_axisz
property float y_axisx
property float y_axisy
property float y_axisz
property float z_axisx
property float z_axisy
property float z_axisz
property float focal
property float scalex
property float scaley
property float centerx
property float centery
property int viewportx
property int viewporty
property float k1
property float k2
end_header
-1.4614899 2.55019 -1.0801401
-1.299917 2.5209959 -1.0155091
-1.1213458 2.4659195 -0.98284817
-0.91398972 2.3686359 -1.0015683
-0.63004524 2.1594465 -1.1563277
-1.7260613 2.514693 -0.96657825
-1.5820242 2.5120025 -0.86917734
-1.4356519 2.5054371 -0.77652884
-1.3458213 2.5941925 -0.56628704
-1.261727 2.6869826 -0.35343146
-1.171424 2.7645681 -0.16132045
-1.0591208 2.8039706 -0.016773224
-0.93941814 2.830153 0.1111517
-0.81945938 2.8545659 0.2363317
-0.67304361 2.8402243 0.31615615
-1.9633274 2.4377184 -0.90845728
-1.82724 2.4484346 -0.79499674
-1.7105769 2.4943254 -0.63870811
-1.6379142 2.6159239 -0.39178848
-1.5613213 2.7231033 -0.165277
-1.4800711 2.8159552 0.041488171
-1.3839109 2.8790338 0.21091878
-1.2873113 2.9378071 0.37373638
-1.1888736 2.9904814 0.52804673
-1.0883305 3.0371511 0.67418981
-0.98752081 3.0809729 0.81594157
-0.85983896 3.0843656 0.91168129
-0.7283231 3.0822763 1.0013181
-0.59519911 3.0781164 1.0887617
-0.41104913 3.006844 1.1043639
-2.1794319 2.322583 -0.8991282
-2.0494006 2.3461854 -0.77025795
-1.9361861 2.4013517 -0.60389972
-1.8712835 2.5449734 -0.33332157
-1.7964649 2.6608591 -0.099122524
-1.7146872 2.7569389 0.10901284
-1.6300554 2.842154 0.30216885
-1.5442808 2.9203529 0.48515654
-1.4582454 2.9935873 0.66056228
-1.3704312 3.0598698 0.82635021
-1.2678021 3.0996709 0.96118569
-1.164228 3.1359279 1.091145
-1.0594376 3.1685212 1.216233
-0.95392567 3.1984344 1.3376378
-0.84546798 3.2227755 1.4524089
-0.71027732 3.2096932 1.5275366
-0.57483745 3.1968961 1.6032873
-0.4365797 3.1810439 1.6762502
-0.22397745 3.0718989 1.655834
-2.2553411 2.211273 -0.78548479
-2.1362143 2.2583566 -0.62958336
-2.0656128 2.4011545 -0.36230779
-1.9951615 2.534384 -0.10970259
-1.922002 2.6535559 0.12342072
-1.8468628 2.7613773 0.34066653
-1.7695618 2.858587 0.54328966
-1.6815985 2.9314287 0.71636152
-1.5923918 2.9978895 0.88059998
-1.5024371 3.0593262 1.0377201
-1.4126494 3.117609 1.1899223
-1.3211344 3.1700704 1.3344843
-1.2233204 3.2102933 1.4648727
-1.1162167 3.2348394 1.5779682
-1.0097743 3.2591019 1.6901642
-0.90147728 3.2795949 1.7979336
-0.79318684 3.2991185 1.9042242
-0.66383517 3.2897482 1.9814267
-0.5246979 3.2680974 2.0468566
-0.3851335 3.2468672 2.1132293
-0.19767487 3.1670749 2.1243308
-2.4488616 2.0449641 -0.83738685
-2.3282232 2.093863 -0.67966175
-2.2309587 2.190263 -0.46811223
-2.1733012 2.363236 -0.17116261
-2.111691 2.5159993 0.098650932
-2.0355716 2.6298447 0.32108521
-1.957752 2.7329779 0.52885675
-1.879246 2.8282874 0.72552621
-1.7990749 2.9147506 0.91027129
-1.71877 2.9958115 1.0871103
-1.6290729 3.0563717 1.2402277
-1.5366235 3.1090169 1.3835689
-1.4448431 3.1598377 1.5237348
-1.3517905 3.2059751 1.6578646
-1.2595109 3.2508781 1.7896192
-1.1615452 3.2851532 1.9096541
-1.0541871 3.3042819 2.0138984
-0.94481242 3.3196685 2.1140261
-0.83562326 3.3345826 2.2133229
-0.71923786 3.339215 2.3024807
-0.56826866 3.2985618 2.3490226
-0.40662396 3.246089 2.3856082
-0.22121257 3.1662304 2.3984406
0.0050677061 3.0398369 2.3712511
-2.5095077 1.8963199 -0.76637673
-2.3908963 1.9527462 -0.60118484
-2.3295643 2.1346185 -0.29570365
-2.2696941 2.3061841 -0.0061097145
-2.2043588 2.4539759 0.25308549
-2.1366999 2.5868378 0.49240708
-2.0647397 2.7023828 0.70981312
-1.9831917 2.792244 0.8969835
-1.9017093 2.8766022 1.0761766
-1.8195479 2.9546268 1.2467222
-1.7369215 3.0272512 1.4098134
-1.6548233 3.0966077 1.5678213
-1.5627716 3.1458254 1.7038441
-1.4697907 3.1909001 1.8345528
-1.3755214 3.2316029 1.9598718
-1.2821208 3.2715268 2.0834541
-1.1875026 3.3076601 2.2024343
-1.0897094 3.3374696 2.3145454
-0.96650386 3.3302364 2.3912406
-0.83604503 3.3134093 2.4592378
-0.69944108 3.2891259 2.5208344
-0.53892738 3.2346437 2.5558155
-0.36730659 3.1683197 2.5815842
-0.1631276 3.0640433 2.5756779
0.084264755 2.9111214 2.530221
-2.5630388 1.7277119 -0.71635628
-2.4523835 1.8074028 -0.52634478
-2.4043517 2.0276556 -0.18347669
-2.3569267 2.2326238 0.1375258
-2.2938671 2.3886728 0.40097392
-2.2233725 2.518157 0.63242304
-2.1519647 2.6369989 0.84959161
-2.0796247 2.7462082 1.0539099
-2.0009496 2.836453 1.2361097
-1.9172835 2.9119592 1.4011679
-1.8336519 2.9830112 1.559955
-1.7493945 3.0488558 1.7118806
-1.665978 3.1123998 1.8599856
-1.5814443 3.1706285 2.0014257
-1.4885662 3.2124529 2.1257591
-1.3935095 3.2487204 2.2438395
-1.2993158 3.2844548 2.3605618
-1.1907767 3.297261 2.4552715
-1.0747113 3.2986147 2.5392406
-0.93976533 3.2733657 2.5992501
-0.79832727 3.2403634 2.652976
-0.65041161 3.2001498 2.7011688
-0.47530842 3.1260135 2.7210093
-0.2898618 3.0417817 2.7340047
-0.066408515 2.9133058 2.7118225
0.22843122 2.7022166 2.6242533
-2.6093631 1.536788 -0.68830538
-2.4972227 1.6183598 -0.4976716
-2.4787679 1.9206971 -0.07195735
-2.4279141 2.1241546 0.24170363
-2.3726859 2.3026872 0.5244379
-2.3088946 2.4498994 0.77047718
-2.2348261 2.5654514 0.98056996
-2.1603537 2.672471 1.1793022
-2.0858693 2.7725515 1.368572
-2.0102816 2.8642764 1.5472176
-1.9274669 2.9371574 1.7052525
-1.8424721 3.0018578 1.8536633
-1.7571414 3.0622733 1.9964631
-1.672449 3.1204028 2.1356916
-1.5870755 3.1742697 2.2695837
-1.5023279 3.2262969 2.4005218
-1.3946401 3.2399995 2.4953713
-1.2795435 3.2417896 2.5792003
-1.1585085 3.2347131 2.6551261
-1.0315747 3.2194622 2.7240655
-0.88694346 3.1799781 2.7724431
-0.73449063 3.1315172 2.8140986
-0.56767106 3.065865 2.8424485
-0.38400626 2.9808781 2.856319
-0.17113006 2.8618472 2.8443782
0.091543317 2.6849134 2.7886167
-2.6360292 1.2871686 -0.71944332
-2.526041 1.3826177 -0.51487613
-2.522584 1.7377896 -0.040625572
-2.4986651 2.0156841 0.34544003
-2.4404025 2.1928408 0.62197089
-2.3795967 2.3514013 0.87559724
-2.3167691 2.494452 1.1100501
-2.2400997 2.5989285 1.3030488
-2.1635222 2.6967285 1.4871137
-2.0872991 2.789001 1.6635853
-2.0100422 2.8736305 1.8306353
-1.9330497 2.9536848 1.9914207
-1.8469313 3.0128269 2.1308789
-1.7608424 3.0686834 2.2659523
-1.6751041 3.1220658 2.3974912
-1.5816994 3.1600277 2.5139663
-1.4774253 3.1786575 2.6124473
-1.3619636 3.1789308 2.6944532
-1.2365565 3.1640928 2.7634192
-1.1051341 3.1410606 2.8257532
-0.9667505 3.1090446 2.8810754
-0.81024498 3.0528932 2.9171505
-0.6505636 2.9948816 2.9530003
-0.47062743 2.9120588 2.9702137
-0.27111888 2.8069291 2.9716344
-0.025974512 2.6471777 2.9327657
0.36277521 2.3120279 2.7624438
-2.5323269 1.0776453 -0.5977118
-2.5429316 1.4893998 -0.072861433
-2.5431395 1.8421996 0.38311982
-2.5071039 2.0808442 0.7171396
-2.4439335 2.2390847 0.96639359
-2.3794742 2.3831315 1.1982083
-2.3136463 2.5142829 1.4143188
-2.2405341 2.6215315 1.6046767
-2.162426 2.7117994 1.776613
-2.0845485 2.7968655 1.9416609
-2.0061178 2.8757236 2.0990739
-1.9285755 2.9515653 2.2519586
-1.8477263 3.0171757 2.3939543
-1.7581499 3.0640202 2.5178583
-1.6557132 3.0866568 2.6195586
-1.5471002 3.0979671 2.7109823
-1.4324284 3.0990105 2.7934167
-1.3093361 3.0868766 2.8647685
-1.1735226 3.0559928 2.9208741
-1.0315872 3.0174937 2.971463
-0.88388681 2.9724305 3.0176415
-0.72526604 2.9139452 3.0541887
-0.55640554 2.8438787 3.0830035
-0.36981511 2.7528341 3.0972333
-0.1411283 2.609838 3.0740623
0.20915723 2.3149004 2.9404325
-2.3749726 0.72495437 -0.61248493
-2.5821269 1.6506025 0.40581989
-2.5492496 1.9080731 0.75305438
-2.5061612 2.121702 1.0523412
-2.4416862 2.2705774 1.2852689
-2.3742738 2.4024704 1.4989035
-2.3061614 2.5239053 1.6998732
-2.2369432 2.6350715 1.8887033
-2.1576102 2.7188637 2.0502398
-2.0783668 2.7976661 2.2054338
-1.9992125 2.8719249 2.3548477
-1.9207194 2.9430842 2.4998937
-1.8297665 2.98804 2.6207771
-1.7259609 3.0082669 2.719631
-1.6133426 3.0125575 2.8046629
-1.4948339 3.0069528 2.8814087
-1.3698657 2.9912953 2.9500721
-1.237361 2.9646482 3.010236
-1.0952969 2.9247274 3.0604563
-0.95167315 2.8843684 3.111228
-0.79954255 2.8335056 3.1547978
-0.64109015 2.7759526 3.1944189
-0.46993351 2.7032852 3.2240043
-0.27300316 2.5987163 3.2316713
0.068242073 2.3065391 3.1053081
-2.520252 1.1843032 0.16839039
-2.5913272 1.731127 0.78785253
-2.5467138 1.9504923 1.0880653
-2.4980223 2.143893 1.3593618
-2.4345849 2.28969 1.5827832
-2.3651929 2.4122517 1.7819574
-2.2949266 2.524761 1.9694383
-2.2244835 2.6296339 2.1476917
-2.1498718 2.7195921 2.310626
-2.0694368 2.7927794 2.4571381
-1.9859869 2.8559718 2.5935404
-1.8891044 2.8909507 2.7048869
-1.7856913 2.9123583 2.8042297
-1.6759474 2.9216409 2.8931994
-1.5544393 2.9105954 2.965591
-1.4252748 2.887538 3.0286841
-1.2926199 2.8600416 3.0888093
-1.1588761 2.8321867 3.1492655
-1.0157626 2.7913656 3.2004666
-0.87382925 2.7542038 3.2553148
-0.73243141 2.7195132 3.3128109
-0.59838337 2.6968303 3.3798163
-0.45210439 2.6580992 3.4358158
-0.28720665 2.5956388 3.4759176
-2.5832567 1.4168854 0.69851148
-2.5877657 1.776587 1.1241026
-2.5377116 1.9752829 1.3963499
-2.4845333 2.1521204 1.64475
-2.4237423 2.2991679 1.8630229
-2.3526089 2.4134512 2.0495522
-2.28053 2.5182133 2.2254004
-2.209075 2.6176014 2.3944013
-2.1378274 2.7112772 2.5564468
-2.0475063 2.7623663 2.6812134
-1.9467726 2.7908826 2.7864358
-1.8399289 2.8066111 2.8807344
-1.7267299 2.8101671 2.9650173
-1.6062701 2.8009562 3.0392156
-1.4796402 2.781816 3.1059406
-1.3470745 2.7538862 3.1663852
-1.2135049 2.725728 3.2272673
-1.0807215 2.7001581 3.290679
-0.95181495 2.6817164 3.3598464
-0.83539057 2.6827595 3.4434142
-0.72695935 2.6954191 3.5351772
-0.61995637 2.7095594 3.627696
-0.50584781 2.7131693 3.7126861
-0.37535107 2.6942232 3.7823763
-0.21013874 2.6295822 3.8221443
0.064538956 3.1452646 4.6310859
0.25449419 3.0517051 4.6538777
-2.583894 1.4802115 1.0537131
-2.5759363 1.7991155 1.4293327
-2.5233748 1.9855648 1.6828179
-2.4669156 2.1495066 1.9129457
-2.409471 2.2998853 2.1280348
-2.3366995 2.4065843 2.3032842
-2.2636688 2.5058379 2.4700787
-2.190279 2.5981402 2.6290622
-2.0999718 2.6510916 2.754353
-2.0016108 2.6853292 2.8636277
-1.8927654 2.6978917 2.9551678
-1.7760258 2.6953204 3.0347319
-1.6522346 2.6803434 3.1048892
-1.5255548 2.6611536 3.1722016
-1.398257 2.6419058 3.2398829
-1.2683723 2.619365 3.3055737
-1.1440279 2.6068184 3.378942
-1.0351658 2.6191287 3.4702017
-0.9385221 2.6495652 3.5738513
-0.84556299 2.6841273 3.6796823
-0.75356054 2.7185514 3.7846766
-0.6511938 2.7366505 3.8780594
-0.55059397 2.7564518 3.972168
-0.45465976 2.7818241 4.0694404
-0.35739875 2.8043776 4.164381
-0.28171468 2.8544211 4.2759581
-0.250103 2.9593601 4.4200611
-0.36362666 3.243896 4.6699066
-0.2648316 3.2541153 4.7516217
-0.068312526 3.1448898 4.7638583
0.22812736 2.9201143 4.7126884
0.46837747 2.7693865 4.7076964
-2.5733819 1.5119172 1.3698266
-2.5552754 1.7977809 1.7054234
-2.5048771 1.984473 1.9518707
-2.445991 2.1381724 2.1670647
-2.386179 2.2793403 2.3687632
-2.3184054 2.3938227 2.5459585
-2.2397234 2.4779265 2.696564
-2.1459026 2.5257771 2.8169374
-2.0448146 2.556298 2.9228816
-1.9364166 2.5709162 3.016037
-1.8204143 2.5704234 3.0975065
-1.6978235 2.5579202 3.170073
-1.5711372 2.5388017 3.2380652
-1.4435685 2.5191488 3.3060782
-1.3191535 2.5058174 3.3789992
-1.2111404 2.520148 3.4715581
-1.1162132 2.5548134 3.5778255
-1.0325661 2.6055408 3.6942532
-0.95045012 2.6562815 3.8096139
-0.86153924 2.6945577 3.9157045
-0.77457386 2.7340007 4.0217371
-0.69742572 2.7858205 4.1348028
-0.62576556 2.8431587 4.2502203
-0.56982583 2.9197395 4.3762493
-0.54918212 3.0407581 4.5274992
-0.60351151 3.2559488 4.7320733
-0.49656487 3.2540164 4.8055139
0.37861586 2.2767057 4.3207932
0.4747982 2.3065791 4.4225373
0.58840787 2.3140385 4.5112944
0.5503149 2.5034304 4.6982174
-2.5546305 1.5202804 1.6571914
-2.5288746 1.7807996 1.9617064
-2.4831567 1.9744955 2.2068999
-2.4221807 2.1192536 2.4091015
-2.3597736 2.2511206 2.5981474
-2.2862945 2.3503325 2.7591362
-2.1915607 2.3984549 2.8790081
-2.087743 2.4250572 2.9816535
-1.9763743 2.4350877 3.0714264
-1.8574317 2.4299245 3.1498575
-1.7337179 2.4160953 3.2221379
-1.6095678 2.4022174 3.2946742
-1.4851048 2.3885148 3.367624
-1.3719351 2.3950765 3.4548581
-1.2725528 2.4245923 3.5575688
-1.1927586 2.4849372 3.6803093
-1.1191235 2.5523107 3.8064187
-1.0377386 2.6043725 3.9211807
-0.95864534 2.657584 4.0355859
-0.88896877 2.7225604 4.1562619
-0.8232367 2.7905002 4.2774053
-0.77269018 2.877367 4.4086113
-0.7484228 2.9975839 4.5578856
-0.78100187 3.1912348 4.7476654
-0.70310724 3.2279243 4.8430657
0.32861912 2.0001936 4.2233667
0.41324794 2.0496519 4.3375616
0.51130557 2.0801325 4.4403963
0.62365425 2.0916116 4.532454
0.61261606 2.2541599 4.7032847
-2.5295682 1.5107958 1.9227227
-2.4982297 1.7522064 2.2030754
-2.4584794 1.9564432 2.4496183
-2.3950782 2.0919368 2.6393628
-2.3186412 2.1892786 2.7975206
-2.2255921 2.2443388 2.9222043
-2.1235116 2.2769871 3.029304
-2.0126696 2.2897863 3.1213701
-1.8926865 2.2837126 3.1997151
-1.7697041 2.2721999 3.2743635
-1.6452466 2.2585535 3.3477733
-1.5216906 2.2472816 3.423085
-1.4145855 2.2658291 3.5186567
-1.3294523 2.3214946 3.6383903
-1.263042 2.4060338 3.7757659
-1.1889966 2.4739082 3.9007168
-1.1168303 2.5416093 4.0241537
-1.0503435 2.6151257 4.1497941
-0.98761672 2.6911142 4.2754202
-0.93996525 2.7864232 4.4110494
-0.91427314 2.9099317 4.5613108
-0.93241394 3.0913553 4.7425194
-0.89236408 3.1832232 4.8690939
0.23898125 1.7634329 4.1505828
0.32182097 1.8200254 4.2696857
0.41564465 1.8598299 4.3786011
0.52058995 1.8836286 4.4782619
0.63741481 1.8913496 4.5691271
0.63556623 2.0477109 4.7350512
-2.4959998 1.4782134 2.1643159
-2.4634347 1.7124634 2.4311514
-2.4235842 1.9131172 2.6681714
-2.3511205 2.0250239 2.8358841
-2.2563365 2.0797975 2.9599152
-2.1524024 2.1113257 3.0662227
-2.0395031 2.1221142 3.1572831
-1.9179072 2.114542 3.235383
-1.7939408 2.1027088 3.3107247
-1.6696253 2.0908623 3.3862991
-1.548753 2.0861056 3.4668179
-1.4500892 2.1220927 3.574039
-1.3816485 2.2099235 3.7138491
-1.3164165 2.2989149 3.8525975
-1.252195 2.3852682 3.987886
-1.1881675 2.4678242 4.1190853
-1.1286027 2.553726 4.2506104
-1.0840354 2.6593313 4.3920388
-1.0533109 2.7815459 4.540966
-1.0492325 2.9385681 4.7072792
-1.0538435 3.1017079 4.8738155
-0.92645252 3.0675538 4.9283471
0.20206201 1.6196103 4.2193003
0.29723179 1.6611311 4.3298106
0.40012133 1.6905386 4.4331717
0.50867581 1.7112681 4.5315065
0.62978542 1.714807 4.6208277
0.64622831 1.85246 4.7757244
-2.4332414 1.3701959 2.3457496
-2.4249501 1.6629127 2.6480761
-2.3657103 1.8145435 2.8435371
-2.2771549 1.8887639 2.9813256
-2.1753576 1.928766 3.0938218
-2.0619826 1.9413059 3.1866899
-1.9383456 1.9316024 3.264287
-1.8122418 1.9174452 3.3391173
-1.6857321 1.9032838 3.4142306
-1.5637547 1.8986123 3.4957504
-1.4706401 1.9481859 3.6118004
-1.4129488 2.0597272 3.7655635
-1.3600856 2.1741891 3.9188704
-1.3043886 2.2780824 4.0634775
-1.2476196 2.3751512 4.201931
-1.2064693 2.4934247 4.3508158
-1.1705581 2.6147015 4.4990382
-1.1593857 2.7695143 4.663733
-1.198054 2.9943461 4.8641
-1.1154602 3.0265942 4.9551635
0.054277539 1.4522769 4.1878228
0.15428376 1.4898419 4.2965841
0.25562668 1.5239949 4.4028339
0.3637954 1.5473138 4.5029383
0.48207068 1.5559634 4.5953321
0.61087227 1.5502228 4.6805944
-2.3679647 1.2557652 2.5225277
-2.3734584 1.5809029 2.8390603
-2.2865801 1.665575 2.9839349
-2.1854887 1.7122037 3.1013691
-2.0725617 1.7296393 3.1984029
-1.9482033 1.7214099 3.2782278
-1.820177 1.7060021 3.3535721
-1.6871537 1.6813352 3.4233251
-1.555558 1.660857 3.4961963
-1.4561515 1.7032762 3.6082904
-1.4184333 1.8587534 3.7881813
-1.3872836 2.0182087 3.9673474
-1.3398416 2.1407552 4.1216617
-1.3021933 2.2742805 4.2798691
-1.2685709 2.4082458 4.4356642
-1.2572727 2.5728402 4.6058578
-1.2700694 2.7688279 4.7899513
-1.2669489 2.9309812 4.9519567
-0.12065649 1.3214977 4.1763926
-0.013174176 1.3499095 4.2803936
0.091343522 1.3815218 4.3854523
0.20304525 1.4014331 4.4840589
0.3232305 1.4085003 4.5760078
0.45148289 1.4040599 4.6623197
0.48220611 1.5329486 4.8110619
-2.263684 1.3565696 2.9334874
-2.1739097 1.4379188 3.0749667
-2.0642416 1.4686832 3.1820114
-1.9386942 1.4624182 3.2647796
-1.8042408 1.4374135 3.3358774
-1.6602128 1.3939079 3.3960066
-1.5096769 1.3396764 3.4504533
-1.3391531 1.2490513 3.4841387
-1.3683507 1.7732606 3.966115
-1.3538821 1.9625353 4.1578264
-1.3370456 2.1382484 4.3382092
-1.3293393 2.3212984 4.5191698
-1.3333765 2.5155845 4.7026005
-1.3926644 2.7922201 4.9259214
-1.3112071 2.8290839 5.0188661
-0.20658886 1.2481232 4.2840924
-0.094607115 1.2694626 4.3837361
0.023708582 1.2803192 4.4778075
0.14666033 1.2838573 4.56814
0.27195096 1.2838575 4.6567345
0.40640819 1.2708116 4.7393017
0.46319616 1.3666542 4.8713522
-2.0856912 0.96787763 2.928988
-2.0093944 1.0896003 3.0964806
-1.8905673 1.106982 3.1967175
-1.7495582 1.0743954 3.2660296
-1.5623126 0.94477284 3.2775211
-1.2948966 1.6441381 4.1189766
-1.3449852 1.9513763 4.3701487
-1.3716342 2.2020199 4.5851035
-1.4173617 2.4737577 4.8062449
-1.4472191 2.7059937 5.0017605
-0.42667532 1.1911058 4.3103156
-0.30408716 1.1951233 4.4007463
-0.17675048 1.1914577 4.4873672
-0.049879789 1.188669 4.5744772
0.080025315 1.1813986 4.6595521
0.2191031 1.1608098 4.7386899
0.26819038 1.2719491 4.87707
-1.3936263 2.044698 4.6320572
-1.5017481 2.435142 4.9098854
-1.4842064 2.5895364 5.0623841
-0.54057908 1.1697119 4.4413061
-0.40065753 1.1431961 4.5161858
-0.26573175 1.1259279 4.5959239
-0.12705076 1.1034603 4.6735992
0.014808178 1.0770152 4.7499132
0.1579603 1.0497004 4.8263521
-1.5769181 2.382411 5.0048847
-1.5017569 2.4373603 5.1065273
-0.65400809 1.1515905 4.5712061
-0.50330061 1.1041718 4.6359224
-0.35301828 1.0595658 4.7028208
-0.20658726 1.0231361 4.7742119
-0.055526018 0.98092341 4.8437729
0.0059078932 1.0795221 4.9742322
-1.6129919 2.2588563 5.064816
-0.94930279 1.2473335 4.6659136
-0.76865518 1.1398293 4.7013788
-0.6015085 1.0606586 4.7516165
-0.44445837 1.0021431 4.8124428
-0.28249359 0.93806589 4.8719711
-0.21780658 1.0343556 5.0003581
-1.6176151 2.073843 5.0971918
-1.0780792 1.2712454 4.8088422
-0.88059056 1.127602 4.8286009
-0.70303214 1.0259697 4.8693304
-0.52932596 0.93563414 4.9167643
-0.45897591 1.0243545 5.040556
-1.5937235 1.8286959 5.1052303
-1.4749119 1.8114625 5.1752591
-0.98781824 1.1110113 4.9513063
-0.79528844 0.97779799 4.9793496
-0.72272146 1.0632801 5.1000266
-1.4490463 1.5586407 5.1859074
-1.2320151 1.3589618 5.1818647
-0.99107027 1.1244218 5.167233
0 0 0 1 0 0 0 1 0 0 0 1 0 0 0 0 0 578 1 0 0
