ply
format ascii 1.0
comment PCL generated
element vertex 580
property float x
property float y
property float z
element camera 1
property float view_px
property float view_py
property float view_pz
property float x_axisx
property float x_axisy
property float x_axisz
property float y_axisx
property float y_axisy
property float y_axisz
property float z_axisx
property float z_axisy
property float z_axisz
property float focal
property float scalex
property float scaley
property float centerx
property float centery
property int viewportx
property int viewporty
property float k1
property float k2
end_header
0.062124848 -4.4575772 -1.371938
0.23498189 -4.4015265 -1.3905532
0.52032685 -4.2421536 -1.2977155
0.78408527 -4.1083875 -1.236948
-0.14447927 -4.5080705 -1.6152698
0.13943446 -4.3389063 -1.5119989
0.40180659 -4.1967273 -1.441994
0.67645097 -4.0481362 -1.3691443
0.94468522 -3.9108009 -1.31199
-0.11955643 -3.9607553 -0.96275616
-0.14418054 -4.1147871 -1.2145333
-0.25168836 -4.3493614 -1.5484593
-0.27715147 -4.4907126 -1.7774823
0.0025143623 -4.3198509 -1.6766347
0.25799656 -4.179245 -1.6115631
0.52538717 -4.03227 -1.5437803
0.8059274 -3.8780878 -1.4727006
1.090193 -3.7258878 -1.40772
-0.42821825 -3.7250805 -0.6473363
-0.45089471 -3.894165 -0.91867775
-0.42315459 -3.9984829 -1.1155915
-0.39246023 -4.0951457 -1.3015836
-0.34262919 -4.1669025 -1.4587775
-0.39072126 -4.340879 -1.7204609
-0.38869405 -4.4552927 -1.916352
-0.1308918 -4.3013673 -1.8370343
0.11804366 -4.1622324 -1.7765849
0.37845349 -4.0168538 -1.7136372
0.6514914 -3.8644478 -1.6476749
0.93835521 -3.7042425 -1.5782328
1.2207682 -3.5538521 -1.522326
-0.73111045 -3.6156745 -0.55699885
-0.71555674 -3.7495289 -0.78927279
-0.69168913 -3.8671725 -1.0006273
-0.64103317 -3.9475322 -1.1692896
-0.58603877 -4.0193443 -1.3268898
-0.52952796 -4.0863886 -1.4776807
-0.47671968 -4.1548281 -1.6281599
-0.47525108 -4.2770553 -1.8312525
-0.48371041 -4.4051561 -2.037035
-0.26083428 -4.2833476 -1.9932704
-0.018205166 -4.1456695 -1.9372382
0.23551464 -4.0018401 -1.8788797
0.50133681 -3.8511865 -1.8177974
0.78037477 -3.6929827 -1.7535794
1.0735726 -3.526721 -1.6860524
1.3382592 -3.3932803 -1.6526227
-0.85992616 -3.0844889 0.088181376
-0.97958708 -3.4303303 -0.38334304
-0.96867096 -3.5828209 -0.63627779
-0.93358386 -3.6961565 -0.84333968
-0.8814677 -3.7822723 -1.0186719
-0.82753873 -3.8621869 -1.1853142
-0.77239043 -3.9370456 -1.3446881
-0.70958573 -3.9994242 -1.4894067
-0.63990718 -4.0510445 -1.6216857
-0.57119417 -4.101625 -1.7516104
-0.55309665 -4.2073617 -1.9344397
-0.54555821 -4.3205628 -2.1218057
-0.41078538 -4.2911248 -2.1697659
-0.15090907 -4.1295552 -2.0937104
0.096380234 -3.9872427 -2.0397217
0.35528886 -3.8382874 -1.9832673
0.62682319 -3.6820388 -1.9240117
0.91200686 -3.5178742 -1.8616792
1.21153 -3.3455415 -1.7963507
-1.2120817 -3.2077467 -0.16966259
-1.2101129 -3.3887751 -0.4542594
-1.1678381 -3.5032001 -0.66316122
-1.1179767 -3.6014259 -0.85208553
-1.0646484 -3.6902115 -1.0286925
-1.0095654 -3.7724912 -1.196362
-0.94080764 -3.8332934 -1.3401018
-0.87182558 -3.891077 -1.4792775
-0.80265462 -3.9460845 -1.6142435
-0.73306251 -3.9982138 -1.745005
-0.66110116 -4.0453396 -1.8696134
-0.60723269 -4.1115084 -2.0112205
-0.5923776 -4.2193441 -2.1904256
-0.54496855 -4.2866383 -2.3292253
-0.280177 -4.1138411 -2.2461333
-0.039086342 -3.973031 -2.1963236
0.21318102 -3.825737 -2.1442735
0.47751498 -3.6713977 -2.0897336
0.75503373 -3.5092602 -2.0323176
1.0462484 -3.3392305 -1.9722396
1.3262291 -3.1861119 -1.9306732
-1.4291396 -2.939636 0.092631102
-1.4391398 -3.1596634 -0.23520154
-1.3979081 -3.2886512 -0.46068883
-1.3487656 -3.3989444 -0.66331506
-1.2978613 -3.5009928 -0.85463804
-1.2392857 -3.5869746 -1.0269299
-1.1703176 -3.6542721 -1.1781312
-1.101841 -3.7190299 -1.3251193
-1.03266 -3.7798367 -1.4665914
-0.96372288 -3.8381934 -1.6041622
-0.88846987 -3.8859341 -1.7300403
-0.80993831 -3.9275248 -1.8488755
-0.73073465 -3.9665263 -1.9642453
-0.66148525 -4.0157499 -2.0881352
-0.63688588 -4.1150198 -2.256628
-0.60295236 -4.1996503 -2.4094388
-0.40616727 -4.0985408 -2.3946881
-0.17104125 -3.9592042 -2.3488631
0.074855924 -3.81352 -2.3009927
0.3323257 -3.6609955 -2.2508938
0.60242462 -3.5009046 -2.1982083
0.88569593 -3.3331003 -2.1430964
1.1836231 -3.156502 -2.0849628
-1.6202266 -2.5954301 0.43619061
-1.6516995 -2.8796425 0.037514925
-1.6221752 -3.0447719 -0.22792506
-1.5758541 -3.1731331 -0.45078754
-1.5274246 -3.2911003 -0.65974629
-1.4668336 -3.3839529 -0.84010923
-1.3984113 -3.460176 -1.0013806
-1.3307295 -3.5336218 -1.1580149
-1.2613561 -3.6010132 -1.3068788
-1.1928424 -3.6663547 -1.4520988
-1.1148932 -3.7157397 -1.5803589
-1.0365936 -3.7623849 -1.7048082
-0.95737678 -3.8057351 -1.8250263
-0.87925619 -3.8485758 -1.9437149
-0.79991555 -3.8880498 -2.0582795
-0.71638203 -3.9207404 -2.1657629
-0.66186184 -3.9867761 -2.3021159
-0.62922728 -4.0757837 -2.457016
-0.56534696 -4.1253786 -2.5756383
-0.29960537 -3.9457324 -2.4974825
-0.059849501 -3.8016403 -2.4536095
0.19103885 -3.6508727 -2.4077215
0.45401752 -3.4927788 -2.3595314
0.7296536 -3.3271613 -2.3091495
1.0193255 -3.1530058 -2.2560472
1.2838933 -3.0102308 -2.2316689
-1.8380255 -2.5164375 0.39785838
-1.841274 -2.7653725 0.041392565
-1.7986194 -2.9172783 -0.20769405
-1.7524625 -3.0541692 -0.43761837
-1.6932738 -3.1613007 -0.63386798
-1.6256633 -3.2486968 -0.8076303
-1.5573908 -3.3303087 -0.97352475
-1.4887271 -3.4070141 -1.1326244
-1.4204241 -3.480325 -1.286577
-1.3410035 -3.533601 -1.419517
-1.2625718 -3.585696 -1.5500553
-1.1833544 -3.6342053 -1.675982
-1.1050136 -3.6816566 -1.7997633
-1.0260234 -3.7260797 -1.9196402
-0.94097131 -3.7605956 -2.029525
-0.85401821 -3.7911763 -2.135083
-0.76693797 -3.8202963 -2.2386253
-0.69134653 -3.8622899 -2.3525975
-0.65236235 -3.9465442 -2.5015898
-0.60757053 -4.020587 -2.6399727
-0.44061565 -3.950731 -2.657352
-0.1910615 -3.7900691 -2.6022682
0.053500175 -3.6410191 -2.56039
0.30965686 -3.4848557 -2.5164587
0.57796955 -3.3213692 -2.4705689
0.85971332 -3.1496098 -2.4222534
1.1462407 -2.9789429 -2.3788953
-2.0469289 -2.4241843 0.37460911
-2.0141444 -2.6178954 0.079747796
-1.9720389 -2.7816019 -0.17962378
-1.9189882 -2.9150932 -0.40435815
-1.8517096 -3.015223 -0.59236312
-1.7834003 -3.1077552 -0.77044153
-1.7154301 -3.1956367 -0.94175732
-1.6462898 -3.2767816 -1.1044524
-1.5670638 -3.3375232 -1.2456639
-1.4880816 -3.3954835 -1.3828022
-1.4090259 -3.4503946 -1.5157157
-1.3302879 -3.5030591 -1.6452539
-1.2514639 -3.5530586 -1.7711151
-1.1663469 -3.5918572 -1.8857169
-1.0795586 -3.6265745 -1.9957764
-0.99244535 -3.6592937 -2.1032634
-0.90611202 -3.691596 -2.2096145
-0.81876945 -3.7212129 -2.3129122
-0.72532135 -3.7419019 -2.4080069
-0.6557039 -3.7910862 -2.5262146
-0.61064541 -3.8679166 -2.6658306
-0.55415416 -3.9281783 -2.7902927
-0.31890082 -3.7787778 -2.747108
-0.080437779 -3.6314225 -2.7090609
0.16914892 -3.4771628 -2.6691964
0.43044651 -3.3157356 -2.6275599
0.70464122 -3.1462526 -2.583745
0.99257231 -2.9682541 -2.5376999
-2.185719 -2.4627678 0.12486064
-2.1434622 -2.6383305 -0.14464718
-2.0764329 -2.7540951 -0.35005331
-2.0091052 -2.8620486 -0.54500818
-1.9410564 -2.9621234 -0.72971958
-1.872331 -3.0550976 -0.90521765
-1.793725 -3.1256378 -1.0570817
-1.7138408 -3.1901016 -1.201556
-1.6348339 -3.2525129 -1.3426086
-1.5554395 -3.311017 -1.4786021
-1.4766948 -3.3675268 -1.6114137
-1.3916845 -3.4117141 -1.7318368
-1.3050041 -3.4512739 -1.8471248
-1.2176375 -3.4879575 -1.9589725
-1.1311924 -3.5242321 -2.0696101
-1.0439787 -3.5577967 -2.1770921
-0.95221341 -3.5837376 -2.2773876
-0.85674882 -3.6036773 -2.3721068
-0.76084781 -3.6222043 -2.4652069
-0.67023909 -3.6466398 -2.5626292
-0.61141115 -3.7093804 -2.6898625
-0.55645287 -3.7742972 -2.8173299
-0.47361887 -3.8035467 -2.9158254
-0.21091563 -3.6220746 -2.8538907
0.032355428 -3.4696734 -2.8178947
0.28691506 -3.3102551 -2.780303
0.55384874 -3.1430073 -2.7407746
0.83405483 -2.9673777 -2.6991913
-2.3540714 -2.2943051 0.1821996
-2.3008728 -2.460144 -0.075716138
-2.2336018 -2.5853806 -0.28964663
-2.1658607 -2.7014437 -0.49172401
-2.0979431 -2.8097816 -0.68366373
-2.0203631 -2.8931596 -0.84927964
-1.9404224 -2.9672184 -1.0041851
-1.8609571 -3.0378261 -1.1541698
-1.7784857 -3.0992427 -1.2940712
-1.6967729 -3.1585681 -1.4306581
-1.6123669 -3.210309 -1.5590742
-1.5251231 -3.2548265 -1.6799016
-1.4388249 -3.2985592 -1.7990177
-1.353606 -3.3417687 -1.9166756
-1.2689967 -3.3837957 -2.0323317
-1.1793787 -3.4165986 -2.1392758
-1.0842569 -3.4401128 -2.2377732
-0.98850083 -3.4616933 -2.3341506
-0.89337206 -3.4831715 -2.4299479
-0.79741573 -3.5026314 -2.5236497
-0.69178951 -3.5087576 -2.6064765
-0.5944891 -3.5251832 -2.6970978
-0.5322299 -3.5844536 -2.8198559
-0.47783148 -3.6509418 -2.9466438
-0.37785101 -3.6604471 -3.0299673
-0.1008538 -3.4623623 -2.9627004
0.14720106 -3.3049378 -2.9289804
0.40719533 -3.1398313 -2.8934984
0.67868602 -2.9679499 -2.8571458
-2.4576423 -2.2707584 0.0023494959
-2.3905149 -2.407727 -0.22220075
-2.3224993 -2.5333242 -0.43267715
-2.2482362 -2.6375442 -0.61993307
-2.1681352 -2.7232857 -0.78742611
-2.087472 -2.8025637 -0.94696069
-2.0054483 -2.874459 -1.0979123
-1.9207046 -2.93713 -1.2388612
-1.8348901 -2.994307 -1.3734643
-1.7456532 -3.0423751 -1.4987108
-1.6568677 -3.0886025 -1.621258
-1.568933 -3.1337895 -1.7418585
-1.4820969 -3.1784124 -1.8609529
-1.3958167 -3.2216678 -1.9778861
-1.3027697 -3.2525222 -2.0835714
-1.2101226 -3.2824984 -2.1878386
-1.1182399 -3.3121865 -2.2911925
-1.0251188 -3.3387694 -2.3914077
-0.92521113 -3.354769 -2.4827383
-0.81946737 -3.3621633 -2.5670705
-0.7121346 -3.3671355 -2.649395
-0.60498196 -3.3721335 -2.7316248
-0.49692094 -3.3757718 -2.8127394
-0.42321491 -3.422092 -2.9247441
-0.35810667 -3.4771011 -3.0419025
-0.2593866 -3.4897051 -3.1280036
-0.016474009 -3.3322673 -3.0962207
0.25636435 -3.1461267 -3.0484889
0.49719071 -3.003036 -3.0337801
-2.5468829 -2.2188997 -0.14585513
-2.4775579 -2.3530803 -0.36372089
-2.3963037 -2.4513564 -0.54484159
-2.3156137 -2.5441685 -0.71868742
-2.2349 -2.6308348 -0.88481688
-2.1526699 -2.7089469 -1.0412543
-2.0647638 -2.7712004 -1.1817498
-1.9725232 -2.8215525 -1.310334
-1.8815016 -2.8712134 -1.4371866
-1.7910984 -2.9191754 -1.5614641
-1.7014911 -2.965884 -1.6836013
-1.6130137 -3.0120034 -1.8041984
-1.5191767 -3.0469222 -1.9144914
-1.4245927 -3.0788767 -2.0215821
-1.3307147 -3.1103523 -2.1275711
-1.2373488 -3.1410904 -2.2322695
-1.144341 -3.1709113 -2.3355613
-1.0416906 -3.1853499 -2.4263148
-0.93848068 -3.1983435 -2.5156455
-0.83564818 -3.2112899 -2.6046498
-0.72997123 -3.2198129 -2.6901002
-0.60158765 -3.1977644 -2.7531362
-0.4821822 -3.1883254 -2.8256912
-0.35740799 -3.1724143 -2.893898
-0.24786657 -3.1761959 -2.976114
-0.16611356 -3.2139294 -3.081404
-0.083112478 -3.2487216 -3.1838753
0.10604548 -3.1568222 -3.2019892
-2.6242433 -2.1416976 -0.26742148
-2.5447254 -2.2548001 -0.46217078
-2.4634442 -2.3557718 -0.64330977
-2.382796 -2.4511666 -0.81717104
-2.3013866 -2.5385647 -0.98177654
-2.2069387 -2.5933547 -1.1156648
-2.1128347 -2.6454029 -1.2459524
-2.0199862 -2.6967306 -1.3744695
-1.9279207 -2.7465115 -1.5005385
-1.8365916 -2.7947912 -1.6242483
-1.7422488 -2.8350201 -1.7402287
-1.6452167 -2.8684139 -1.8497398
-1.5490516 -2.90151 -1.9582732
-1.4537418 -2.9343114 -2.0658407
-1.3589758 -2.9663427 -2.1720803
-1.2579591 -2.9870405 -2.2688596
-1.1541831 -3.0025415 -2.3612249
-1.0496982 -3.0162652 -2.4519148
-0.94544548 -3.0297012 -2.5420885
-0.83060706 -3.0274682 -2.6205568
-0.71010834 -3.0174489 -2.693491
-0.58924961 -3.007365 -2.7666008
-0.45628643 -2.9815462 -2.8289986
-0.31330848 -2.9436884 -2.8837333
-0.13090181 -2.856828 -2.906332
0.17885077 -2.6134145 -2.8272409
-2.7763927 -0.29610395 1.7740746
-2.6144783 -0.27186859 1.6884735
-2.4401317 -0.21387136 1.6343269
-2.256263 -0.13448215 1.5989473
-1.9734231 0.20097971 1.7988338
-2.6844113 -2.0229104 -0.34939134
-2.611737 -2.1568205 -0.56040621
-2.530386 -2.2604706 -0.74148554
-2.4428501 -2.3427331 -0.90144312
-2.352159 -2.4124606 -1.0486894
-2.2559147 -2.4657774 -1.1803002
-2.161195 -2.5188489 -1.3105406
-2.0673985 -2.5704951 -1.4384294
-1.9724097 -2.6167409 -1.5607233
-1.8730037 -2.6519842 -1.6730255
-1.7742929 -2.6865125 -1.7839836
-1.676461 -2.7207098 -1.8939261
-1.5795064 -2.7546 -2.002882
-1.4801056 -2.7826014 -2.1065474
-1.3743457 -2.7987263 -2.2005527
-1.2690513 -2.8148019 -2.2941697
-1.1635685 -2.8298059 -2.3866429
-1.0537722 -2.8375115 -2.4734659
-0.93297774 -2.828444 -2.5480719
-0.81113464 -2.8182545 -2.6220813
-0.68659854 -2.8046703 -2.6939487
-0.55532146 -2.7822568 -2.7600579
-0.423325 -2.759805 -2.8266301
-0.24592018 -2.6774867 -2.8539472
0.076590061 -2.4081571 -2.7609444
-3.0681701 -0.37415898 1.5719645
-2.9155216 -0.36768889 1.4715323
-2.7711365 -0.38776314 1.3461461
-2.6429279 -0.45444965 1.1781197
-2.547565 -0.60939813 0.93091631
-2.4899595 -0.85503256 0.60519791
-2.7401881 -1.8919692 -0.42091787
-2.6755757 -2.051501 -0.6516946
-2.5849881 -2.1358404 -0.8136003
-2.4943433 -2.214009 -0.96838742
-2.4022341 -2.2834542 -1.1140885
-2.3052652 -2.3375962 -1.2454715
-2.2096105 -2.3910298 -1.3751035
-2.107785 -2.4284241 -1.4904897
-2.0069206 -2.4654655 -1.604787
-1.9065624 -2.5013051 -1.717332
-1.8070991 -2.536777 -1.8288178
-1.7085173 -2.571887 -1.9392602
-1.6010014 -2.5892036 -2.0353761
-1.4936473 -2.6058881 -2.1306443
-1.3867581 -2.6225002 -2.2254999
-1.2802117 -2.6388447 -2.3198025
-1.1605542 -2.6333456 -2.3980331
-1.0382107 -2.6239002 -2.4735842
-0.91497052 -2.6135218 -2.5486875
-0.78479111 -2.5932376 -2.6172044
-0.65118855 -2.5688503 -2.6833813
-0.50900459 -2.5332484 -2.7426152
-0.32990706 -2.4474838 -2.769752
-3.1816654 -0.38137698 1.3368864
-3.0359225 -0.39121711 1.2227192
-2.8999352 -0.43186498 1.0806625
-2.7791326 -0.51586866 0.90038633
-2.6841235 -0.66890335 0.66039991
-2.5972905 -0.8321054 0.41471422
-2.7769558 -1.7078474 -0.44711989
-2.7268927 -1.9136209 -0.71487677
-2.6365349 -2.0023799 -0.8789947
-2.5461836 -2.0846872 -1.0358235
-2.4526958 -2.1538668 -1.1800457
-2.349956 -2.1974268 -1.3018813
-2.2462034 -2.2359095 -1.4186996
-2.1435442 -2.2742615 -1.534597
-2.0416951 -2.3119118 -1.6491296
-1.9405377 -2.3486881 -1.7621861
-1.8348258 -2.3745246 -1.8661098
-1.7254752 -2.3920686 -1.9632428
-1.6165869 -2.4094937 -2.0599146
-1.5081668 -2.4268212 -2.1561453
-1.3940047 -2.4333024 -2.2441883
-1.2703587 -2.4234443 -2.3204877
-1.1464136 -2.4135811 -2.3969929
-1.0196836 -2.3997197 -2.4709523
-0.88507551 -2.3741515 -2.5372634
-0.7496047 -2.3484378 -2.6040199
-0.58636069 -2.2822695 -2.6447346
-0.4011867 -2.1868796 -2.6679592
-3.4256368 -0.33643556 1.2597132
-3.2844858 -0.35982752 1.1341972
-3.1413901 -0.37382841 1.0176268
-3.0070896 -0.4161694 0.87613058
-2.884367 -0.49174869 0.70629287
-2.7795768 -0.61555862 0.49613166
-2.6803555 -0.74494863 0.28377604
-2.5886598 -0.88473153 0.065319777
-2.7678299 -1.745711 -0.7541784
-2.6884277 -1.8681171 -0.94484466
-2.5943592 -1.9447248 -1.0955509
-2.4934874 -1.9994304 -1.2269977
-2.3880813 -2.0397899 -1.345885
-2.2834439 -2.0791855 -1.4631693
-2.1797624 -2.1181188 -1.5792699
-2.0746636 -2.1516237 -1.6904068
-1.9639362 -2.1715693 -1.7906225
-1.8534377 -2.1907961 -1.8898866
-1.7429537 -2.2089498 -1.9879608
-1.6329533 -2.2270012 -2.0855808
-1.5086517 -2.2179642 -2.1635439
-1.3834943 -2.2078829 -2.2409644
-1.2580117 -2.1977546 -2.3185632
-1.1245422 -2.1746478 -2.3875465
-0.98827088 -2.1480517 -2.4546766
-0.84667861 -2.1141677 -2.5175602
-0.66268158 -2.0152547 -2.5389633
-0.38611096 -1.7787405 -2.474606
-3.5190315 -0.29066014 1.0818918
-3.3771732 -0.30757165 0.96349549
-3.2351279 -0.32195854 0.84766757
-3.0999663 -0.35904992 0.71242392
-2.9720078 -0.41657972 0.56041455
-2.85642 -0.50815225 0.38074279
-2.7503915 -0.62066126 0.18543875
-2.6440318 -0.72261155 0.0011935234
-2.7934365 -1.5309912 -0.75773871
-2.7295175 -1.7031057 -0.98701614
-2.6321774 -1.7758687 -1.1336675
-2.5325356 -1.8376012 -1.2701489
-2.4266896 -1.8800938 -1.3904397
-2.3211737 -1.9204661 -1.5082299
-2.2090116 -1.9432716 -1.6119313
-2.0963173 -1.9634722 -1.7132232
-1.984411 -1.9840864 -1.8144002
-1.8724296 -2.0033145 -1.9141479
-1.7532589 -2.0071671 -2.0025344
-1.6269947 -1.9971294 -2.0810814
-1.5001864 -1.9866233 -2.1595118
-1.3705369 -1.9714937 -2.2350066
-1.2329131 -1.9429801 -2.3018255
-1.0945766 -1.9146773 -2.3693738
-0.92910194 -1.8419316 -2.4085791
-0.74160808 -1.7363979 -2.4282868
-3.6023047 -0.20824909 0.93974495
-3.4638944 -0.23735154 0.81158435
-3.3200791 -0.24237335 0.70466471
-3.1822567 -0.26875043 0.57975626
-3.0502248 -0.31256437 0.44079399
-2.9246378 -0.37348366 0.28858554
-2.8107963 -0.46587825 0.1119225
-2.6959014 -0.54704607 -0.053800583
-2.5848165 -0.63244259 -0.22123063
-2.7487297 -1.4736593 -0.98086905
-2.6705811 -1.6045914 -1.1724031
-2.5719018 -1.6730938 -1.3134778
-2.4615307 -1.7077496 -1.4275916
-2.3469548 -1.72996 -1.5317259
-2.2327094 -1.7514517 -1.6348782
-2.1186855 -1.7720501 -1.7369441
-2.0039253 -1.7897646 -1.836529
-1.8764906 -1.7797863 -1.9162536
-1.7487555 -1.7697843 -1.996166
-1.6202865 -1.7589011 -2.0756798
-1.4841211 -1.7338099 -2.1458483
-1.3447195 -1.704017 -2.2134113
-1.2033182 -1.672147 -2.2802269
-1.0154786 -1.5594159 -2.2957184
-0.75179464 -1.3209614 -2.2339864
-3.5472999 -0.15786695 0.66985655
-3.4005368 -0.14861727 0.57544756
-3.2580833 -0.1567359 0.46649551
-3.121259 -0.18429518 0.34183383
-2.9876859 -0.22029781 0.21091986
-2.8601282 -0.2725898 0.06776154
-2.7393193 -0.34128666 -0.087239504
-2.6159668 -0.39652431 -0.23040777
-2.4960814 -0.45718014 -0.37661159
-2.6917481 -1.3817476 -1.1746573
-2.5983012 -1.4705975 -1.3307216
-2.4883957 -1.5109673 -1.4493232
-2.372541 -1.5338488 -1.5544195
-2.256886 -1.5556514 -1.6582816
-2.1328051 -1.5566351 -1.7470157
-2.0036297 -1.5462073 -1.8277955
-1.8739772 -1.5353925 -1.9085202
-1.7415547 -1.5194224 -1.9859828
-1.6011332 -1.4881113 -2.0535638
-1.4597046 -1.4565762 -2.1216302
-1.2961506 -1.3842444 -2.1640227
-1.103218 -1.2608135 -2.1754355
-3.6248281 -0.056325912 0.54823375
-3.4772339 -0.041815042 0.45816851
-3.331331 -0.035606623 0.36111808
-3.1871216 -0.036391973 0.25837266
-3.0475421 -0.053557992 0.14275837
-2.907336 -0.066963911 0.030406237
-2.7728338 -0.097578764 -0.094871521
-2.6360681 -0.11853075 -0.21222705
-2.4996696 -0.13882113 -0.32867134
-2.3455584 -0.10713124 -0.40641487
-2.6047981 -1.2076627 -1.3076571
-2.5129032 -1.3024063 -1.4660046
-2.3958964 -1.3266451 -1.572628
-2.2655261 -1.3164697 -1.6547859
-2.1348166 -1.3061707 -1.737062
-2.0033898 -1.294893 -1.8188809
-1.8643155 -1.2673442 -1.8900725
-1.7219125 -1.234302 -1.9582039
-1.5783509 -1.2007859 -2.0266881
-1.3898374 -1.0779629 -2.0389471
-1.1401111 -0.84120321 -1.9822083
-3.5512078 0.075285912 0.34982133
-3.4012623 0.098837614 0.26637506
-3.2528217 0.11397743 0.175928
-3.1031432 0.13213062 0.087495089
-2.9545519 0.14469218 -0.0055303574
-2.802021 0.16926765 -0.089822412
-2.6420407 0.21547651 -0.15863979
-2.4623871 0.31797504 -0.18739659
-2.1024203 0.94154525 0.15596032
-2.4831219 -0.94021082 -1.3791082
-2.3961449 -1.0529345 -1.5486919
-2.2698178 -1.0584345 -1.6432923
-2.1344178 -1.0414436 -1.7227433
-1.9909999 -1.006665 -1.7908087
-1.8463112 -0.97119713 -1.8591117
-1.6830077 -0.8967309 -1.9031851
-1.4874797 -0.75755322 -1.9079978
-3.6220496 0.20596647 0.25233603
-3.4710925 0.23449969 0.17220879
-3.3162589 0.27554274 0.10101008
-3.160996 0.31390238 0.027003765
-3.0015478 0.36365891 -0.039330602
-2.8344753 0.43510723 -0.090821743
-2.6523621 0.54983473 -0.11257815
-2.4307661 0.77956438 -0.054979563
-2.1102915 1.2900863 0.19462264
-2.1023192 -0.68798804 -1.6561512
-1.9713473 -0.69047749 -1.7510841
-1.7647619 -0.51529241 -1.7337506
-3.5374331 0.38665104 0.090005159
-3.3824024 0.42866898 0.0185076
-3.2194774 0.49758863 -0.034161091
-3.0522327 0.57575321 -0.081495762
-2.8765848 0.67648411 -0.1142962
-2.6814485 0.83462381 -0.10878515
-2.4487712 1.101625 -0.031040907
-3.2831388 0.66439962 -0.10940814
-3.1090209 0.77044535 -0.1389358
-2.9252844 0.90172958 -0.15299094
-2.7248163 1.0798917 -0.13750446
0 0 0 1 0 0 0 1 0 0 0 1 0 0 0 0 0 580 1 0 0
