ply
format ascii 1.0
comment PCL generated
element vertex 412
property float x
property float y
property float z
element camera 1
property float view_px
property float view_py
property float view_pz
property float x_axisx
property float x_axisy
property float x_axisz
property float y_axisx
property float y_axisy
property float y_axisz
property float z_axisx
property float z_axisy
property float z_axisz
property float focal
property float scalex
property float scaley
property float centerx
property float centery
property int viewportx
property int viewporty
property float k1
property float k2
end_header
-0.29686949 -0.35140502 -2.926399
-0.14812715 -0.57806182 -2.5108781
-1.290765 0.65183604 -4.4957361
-1.1548841 0.67298579 -4.535768
-1.0197277 0.6962738 -4.5798464
-0.88539428 0.72212809 -4.6287823
-0.75262117 0.74755347 -4.6769071
-0.62498093 0.74745113 -4.676713
-0.53833002 0.39092761 -4.0018973
-0.40442973 0.34444535 -3.9139175
-0.26891917 0.27948344 -3.7909596
-0.12985967 0.20803815 -3.6557305
0.01330908 0.12535238 -3.4992261
0.16177973 0.02364248 -3.3067129
0.31751454 -0.10266042 -3.0676513
0.48516414 -0.28288293 -2.726532
-1.5695294 0.72303617 -4.3502083
-1.432423 0.73904413 -4.3815126
-1.2960031 0.75593233 -4.4145384
-1.1593585 0.77741557 -4.4565501
-1.023458 0.80112356 -4.5029125
-0.88902122 0.8245275 -4.5486803
-0.75522405 0.85212606 -4.6026506
-0.62270719 0.88209677 -4.6612597
-0.49192831 0.91234797 -4.720418
-0.38816079 0.65805411 -4.2231321
-0.25758699 0.60307002 -4.1156073
-0.12429689 0.53002763 -3.972769
0.013308991 0.44816214 -3.8126764
0.15604414 0.35645902 -3.6333461
0.30501899 0.25086808 -3.426857
0.46198431 0.12553561 -3.1817622
0.62988532 -0.029656887 -2.8782744
0.81566101 -0.24375713 -2.45959
-1.7120075 0.81948704 -4.2490168
-1.5750003 0.83125407 -4.2728086
-1.4356191 0.85226119 -4.3152828
-1.2967393 0.87582034 -4.3629174
-1.1593585 0.89913481 -4.4100575
-1.023458 0.92218846 -4.4566698
-0.88902122 0.94494629 -4.5026841
-0.75600612 0.96749187 -4.5482693
-0.62439466 0.98981827 -4.5934114
-0.49344257 1.0178846 -4.6501584
-0.3637189 1.0511854 -4.7174897
-0.25099859 0.8380062 -4.2864609
-0.12070172 0.77689093 -4.1628914
0.013309199 0.70781523 -4.0232263
0.15182434 0.62865901 -3.8631792
0.296123 0.53349924 -3.6707749
0.44738609 0.42538428 -3.4521761
0.60741073 0.29924327 -3.1971302
0.77881461 0.14866197 -2.8926685
0.96702319 -0.043894053 -2.5033374
1.1857319 -0.324821 -1.9353279
-1.8546916 0.92070293 -4.1540341
-1.7173502 0.93032676 -4.1741686
-1.5760176 0.95218933 -4.2199082
-1.4356191 0.97531116 -4.2682819
-1.2967393 0.99820155 -4.3161721
-1.1593585 1.0208542 -4.363565
-1.023458 1.0432534 -4.4104271
-0.88902122 1.0653652 -4.4566879
-0.75600612 1.0872707 -4.5025177
-0.62439466 1.1089634 -4.5479021
-0.4941735 1.1303904 -4.59273
-0.3648828 1.1561835 -4.6466932
-0.23667674 1.1904321 -4.7183456
-0.11817913 0.98274636 -4.2838378
0.013309497 0.91367537 -4.1393318
0.1493562 0.83698499 -3.9788842
0.29071647 0.75203693 -3.8011608
0.43832269 0.65714812 -3.6026399
0.59351772 0.54904741 -3.3764777
0.75832021 0.42274517 -3.1122355
0.93584073 0.27076769 -2.7942767
1.1335363 0.070059299 -2.3743663
-1.9976883 1.0255487 -4.0635262
-1.8590375 1.0357125 -4.0855465
-1.7179575 1.0532408 -4.1235237
-1.5760176 1.0759147 -4.1726494
-1.4356191 1.098361 -4.2212811
-1.2967393 1.1205826 -4.2694263
-1.1593585 1.1425735 -4.3170719
-1.023458 1.1643182 -4.3641844
-0.88902122 1.1857841 -4.4106922
-0.75600612 1.2070496 -4.4567661
-0.62439466 1.2281084 -4.5023928
-0.4941735 1.2489095 -4.5474596
-0.36531344 1.2694931 -4.5920563
-0.23724805 1.2983294 -4.6545334
-0.11125354 1.3205402 -4.7026558
0.01330908 1.1033406 -4.2320704
0.14707546 1.0348709 -4.0837235
0.28591049 0.95620298 -3.9132814
0.43083516 0.86696935 -3.7199476
0.58291113 0.76685929 -3.5030491
0.74361849 0.65320957 -3.2568154
0.91555625 0.5193426 -2.9667788
1.1024879 0.35723472 -2.6155555
1.3124781 0.14618868 -2.1583028
-2.0003331 1.1454809 -4.0037656
-1.8614628 1.1554327 -4.0261145
-1.7179575 1.1776487 -4.076004
-1.5760176 1.1996403 -4.1253905
-1.4356191 1.221411 -4.1742802
-1.2967393 1.2429637 -4.222681
-1.1593585 1.2642927 -4.2705793
-1.023458 1.2853831 -4.3179417
-0.88902122 1.3062029 -4.3646965
-0.75600612 1.3268285 -4.4110146
-0.62439466 1.3472536 -4.4568834
-0.4941735 1.3674284 -4.5021896
-0.36531344 1.3873926 -4.5470228
-0.23779081 1.4071918 -4.591485
-0.11103289 1.4435675 -4.6731739
0.01330908 1.2668736 -4.2763753
0.14579995 1.1982296 -4.1222229
0.28329927 1.1228366 -3.9529138
0.42652759 1.0402138 -3.7673695
0.57653552 0.94787031 -3.5599952
0.73464209 0.84370172 -3.3260655
0.90291685 0.72324073 -3.0555487
1.0843098 0.5807721 -2.7356093
1.2856063 0.39901805 -2.3274472
1.5199306 0.14717412 -1.7618859
-2.0032499 1.2652149 -3.9426503
-1.8614628 1.2805297 -3.9783313
-1.7179575 1.3020566 -4.0284848
-1.5760176 1.3233656 -4.0781317
-1.4356191 1.3444608 -4.1272798
-1.2967393 1.3653449 -4.1759357
-1.1593585 1.3860121 -4.2240868
-1.023458 1.406448 -4.271699
-0.88902122 1.4266218 -4.3187003
-0.75600612 1.4466074 -4.3652635
-0.62439466 1.4663986 -4.4113736
-0.4941735 1.4859476 -4.4569197
-0.36531344 1.5052922 -4.5019889
-0.23779331 1.5244359 -4.5465903
-0.11124681 1.5534629 -4.6142187
0.013309199 1.5595535 -4.6284084
0.14463879 1.3558711 -4.1538639
0.28075355 1.2860727 -3.9912457
0.4223313 1.2096853 -3.8132758
0.570265 1.1251401 -3.6163001
0.72599429 1.0289268 -3.3921402
0.89137393 0.91786623 -3.133388
1.0689358 0.78777134 -2.8302894
1.2625154 0.63178945 -2.4668784
1.4822136 0.42581135 -1.986985
2.0097978 -0.63713479 0.48949575
-2.143925 1.3797929 -3.8680422
-2.0053213 1.3869028 -3.8852448
-1.8614628 1.405627 -3.9305484
-1.7179575 1.4264643 -3.9809651
-1.5760176 1.4470911 -4.0308723
-1.4356191 1.4675107 -4.0802789
-1.2967393 1.487726 -4.1291904
-1.1593585 1.5077314 -4.1775942
-1.023458 1.5275128 -4.2254562
-0.88902122 1.5470407 -4.2727046
-0.75600612 1.5663862 -4.3195119
-0.62439466 1.5855438 -4.3658643
-0.4941735 1.6044667 -4.4116488
-0.36531344 1.6231918 -4.4569554
-0.23779331 1.6417224 -4.501791
-0.11136685 1.6664333 -4.5615797
0.013309319 1.6843925 -4.6050329
0.1440533 1.4950833 -4.1469917
0.27962345 1.4269521 -3.9821458
0.4206917 1.3524855 -3.8019707
0.56813097 1.2702802 -3.6030717
0.72325534 1.1775504 -3.3787084
0.88762194 1.0722351 -3.1238935
1.0639522 0.94875115 -2.8251193
1.2558455 0.80120397 -2.468123
1.4719973 0.61033297 -2.0063033
2.0011888 -0.42631984 0.50191951
-2.1437051 1.5061207 -3.8208785
-2.0063124 1.510816 -3.832689
-1.8614628 1.530724 -3.8827658
-1.7179575 1.5508721 -3.9334455
-1.5760176 1.5708165 -3.9836135
-1.4356191 1.5905606 -4.033278
-1.2967393 1.6101071 -4.0824451
-1.1593585 1.6294507 -4.1311016
-1.023458 1.6485777 -4.1792135
-0.88902122 1.6674595 -4.2267084
-0.75600612 1.6861651 -4.2737608
-0.62439466 1.7046888 -4.3203549
-0.4941735 1.7229857 -4.3663788
-0.36531344 1.7410915 -4.4119215
-0.23779331 1.759009 -4.4569912
-0.11144142 1.7808716 -4.5119843
0.013308901 1.8049834 -4.5726352
0.14368244 1.6273496 -4.1258168
0.2788136 1.5623962 -3.9624333
0.41937742 1.4913039 -3.7836084
0.56629157 1.4124112 -3.5851626
0.72066188 1.3243556 -3.363668
0.88404149 1.2246573 -3.1128881
1.0589991 1.1082845 -2.8201647
1.2492739 0.96872479 -2.4691174
1.4621155 0.79171842 -2.0238774
1.9980636 -0.2320838 0.55138588
-2.1437786 1.6319385 -3.7724571
-2.0063858 1.636465 -3.7843072
-1.8614628 1.6558213 -3.8349829
-1.7179575 1.6752799 -3.885926
-1.5760176 1.6945419 -3.9363546
-1.4356191 1.7136104 -3.9862771
-1.2967393 1.7324882 -4.0356994
-1.1593585 1.7511699 -4.084609
-1.023458 1.7696426 -4.1329708
-0.88902122 1.7878783 -4.1807127
-0.75600612 1.805944 -4.2280092
-0.62439466 1.8238339 -4.2748456
-0.4941735 1.8415048 -4.3211088
-0.36531344 1.858991 -4.366888
-0.23779331 1.8762956 -4.4121919
-0.11144798 1.8972394 -4.4670238
0.01330908 1.9210473 -4.5293536
0.14365365 1.7499011 -4.0812869
0.27875268 1.6872146 -3.917172
0.41928896 1.6185257 -3.7373419
0.56616306 1.542402 -3.5380473
0.72049755 1.4573799 -3.3154569
0.88385195 1.3610582 -3.0632834
1.0587364 1.248822 -2.7694449
1.2489604 1.1140834 -2.4166949
1.4618505 0.94287676 -1.96847
1.9980206 -0.046561003 0.62191153
-2.1438782 1.7577233 -3.7239189
-2.0053952 1.7639277 -3.7408457
-1.8614628 1.7809184 -3.7872
-1.7179575 1.7996876 -3.8384066
-1.5760176 1.8182673 -3.8890958
-1.4356191 1.8366604 -3.9392762
-1.2967393 1.8548694 -3.9889541
-1.1593585 1.8728893 -4.0381165
-1.023458 1.8907075 -4.0867281
-0.88902122 1.9082972 -4.134717
-0.75600612 1.9257228 -4.1822577
-0.62439466 1.942979 -4.2293363
-0.4941735 1.9600239 -4.2758384
-0.36531344 1.9768906 -4.3218546
-0.23779331 1.9935821 -4.3673925
-0.11137401 2.0156689 -4.42765
0.013308842 2.0324616 -4.473465
0.14402433 1.862234 -4.0090466
0.27956378 1.800884 -3.8416708
0.42059806 1.7338467 -3.6587782
0.5680055 1.6597989 -3.4567599
0.72309369 1.5763012 -3.22896
0.88740855 1.4815211 -2.9703796
1.0636933 1.3703271 -2.6670179
1.2555392 1.2374568 -2.3045192
1.4715961 1.0656879 -1.8358965
2.0010891 0.13104081 0.71402264
-2.0034602 1.8928092 -3.7018211
-1.8614628 1.9060155 -3.7394171
-1.7179575 1.9240954 -3.7908869
-1.5760176 1.9419928 -3.8418369
-1.4356191 1.9597102 -3.8922753
-1.2967393 1.9772505 -3.9422088
-1.1593585 1.9946086 -3.9916239
-1.023458 2.0117724 -4.0404854
-0.88902122 2.0287161 -4.0887208
-0.75600612 2.0455017 -4.1365061
-0.62439466 2.062124 -4.1838269
-0.4941735 2.0785429 -4.2305679
-0.36531344 2.0947902 -4.2768207
-0.23779331 2.1108687 -4.3225927
-0.11126636 2.1347814 -4.3906679
0.013309438 2.1420102 -4.4112463
0.14455058 1.9714502 -3.9256968
0.28057081 1.9129148 -3.759058
0.42204288 1.8488714 -3.5767388
0.56996125 1.777365 -3.3731747
0.72582394 1.6955333 -3.1402159
0.8911559 1.6023097 -2.8748274
1.068674 1.4930694 -2.5638421
1.262202 1.3621073 -2.1910191
1.4816127 1.1897866 -1.700456
2.0097113 0.29560876 0.8450892
-2.0005431 2.0229928 -3.6674795
-1.8614628 2.0311127 -3.6916342
-1.7179575 2.0485032 -3.7433672
-1.5760176 2.0657182 -3.7945781
-1.4356191 2.0827601 -3.8452744
-1.2967393 2.0996315 -3.8954632
-1.1593585 2.1163278 -3.9451311
-1.023458 2.1328373 -3.9942427
-0.88902122 2.1491349 -4.0427251
-0.75600612 2.1652803 -4.0907545
-0.62439466 2.1812692 -4.1383176
-0.4941735 2.197062 -4.185298
-0.36531344 2.2126899 -4.2317872
-0.23779331 2.2281551 -4.2777934
-0.11105107 2.2562227 -4.3612881
0.013308901 2.1206894 -3.958106
0.14571293 2.066658 -3.7973738
0.28311577 2.0077572 -3.6221566
0.42623675 1.9432018 -3.4301181
0.57612783 1.8710355 -3.2154386
0.73413038 1.7895061 -2.9729061
0.90221232 1.69556 -2.6934366
1.0834001 1.584335 -2.362566
1.2845485 1.442112 -1.9394832
1.5185846 1.2453774 -1.3542399
-1.9974644 2.1530573 -3.6340365
-1.8593674 2.1595972 -3.654397
-1.7179575 2.1729112 -3.6958477
-1.5760176 2.1894436 -3.7473192
-1.4356191 2.2058101 -3.7982736
-1.2967393 2.2220128 -3.8487177
-1.1593585 2.2380471 -3.8986385
-1.023458 2.253902 -3.948
-0.88902122 2.2695537 -3.9967289
-0.75600612 2.2850595 -4.0450029
-0.62439466 2.3004141 -4.0928082
-0.4941735 2.3155811 -4.1400275
-0.36531344 2.3305893 -4.1867533
-0.23730843 2.350929 -4.2500777
-0.11121599 2.3686714 -4.3053155
0.01330914 2.2130136 -3.8207006
0.14694165 2.1625392 -3.6635568
0.2857165 2.1043482 -3.482388
0.43054402 2.0392904 -3.2798421
0.58252335 1.9662915 -3.0525718
0.74395734 1.8796976 -2.7829752
0.91755599 1.7760803 -2.4603801
1.1017237 1.6678948 -2.1235621
1.3114016 1.514588 -1.6462667
-1.8550292 2.2912784 -3.628613
-1.7177496 2.2976658 -3.6494613
-1.5760176 2.313169 -3.7000604
-1.4356191 2.3288598 -3.7512727
-1.2967393 2.3443937 -3.8019724
-1.1593585 2.3597665 -3.8521457
-1.023458 2.3749671 -3.9017575
-0.88902122 2.3899727 -3.9507332
-0.75600612 2.4048381 -3.9992518
-0.62439466 2.4195592 -4.0472984
-0.4941735 2.4341002 -4.0947571
-0.36497316 2.4509504 -4.1497536
-0.23665182 2.4751148 -4.2286215
-0.11802004 2.3373542 -3.778996
0.013309021 2.2906299 -3.6264968
0.14919122 2.2385645 -3.4565644
0.29036912 2.1811106 -3.2690454
0.43789437 2.1160488 -3.0566959
0.59580755 2.0271649 -2.7665954
0.76341718 1.9317582 -2.455205
0.94172746 1.8294549 -2.1213055
1.131763 1.7200325 -1.7641711
-1.7124165 2.4305768 -3.6311457
-1.5753682 2.4380178 -3.6566529
-1.4356191 2.4519098 -3.7042718
-1.2967393 2.4667749 -3.7552269
-1.1593585 2.4814858 -3.8056531
-1.023458 2.4960318 -3.8555148
-0.88902122 2.5103915 -3.9047372
-0.75600612 2.5246172 -3.9535003
-0.62439466 2.5387044 -4.0017891
-0.49359092 2.5556433 -4.0598536
-0.36383471 2.5766258 -4.1317782
-0.25050214 2.4480689 -3.6911054
-0.12046139 2.4093442 -3.5583634
0.01330914 2.3661313 -3.4102368
0.15165062 2.3144348 -3.2330296
0.29700276 2.2416484 -2.9835298
0.45120052 2.1561625 -2.6904981
0.61461782 2.0655577 -2.3799195
0.78810906 1.9693601 -2.0501697
0.97302133 1.8657026 -1.694849
1.1835141 1.7157829 -1.1809479
-1.5699815 2.5705941 -3.6415224
-1.4328279 2.5799916 -3.6754222
-1.2964177 2.5897946 -3.7107847
-1.1593585 2.6032052 -3.7591605
-1.023458 2.6170967 -3.8092721
-0.88902122 2.6308103 -3.8587413
-0.75547975 2.6461358 -3.9140258
-0.62291735 2.6637092 -3.9774175
-0.491864 2.6825886 -4.0455213
-0.38708112 2.5404038 -3.5326171
-0.25708482 2.5060272 -3.4086099
-0.12404571 2.4632392 -3.2542601
0.013308931 2.3970673 -3.0155578
0.15789607 2.3198266 -2.7369258
0.31081206 2.237237 -2.4389997
0.47250208 2.1517115 -2.1304822
0.64398998 2.0603757 -1.8010056
0.82633364 1.9625216 -1.4480155
-1.4314127 2.7052357 -3.6377621
-1.2911425 2.7221136 -3.7019739
-1.1552587 2.7335315 -3.7454138
-1.0200791 2.7461419 -3.7933908
-0.8857044 2.7601824 -3.846808
-0.75250512 2.7752013 -3.9039483
-0.62342459 2.7806606 -3.9247189
-0.55084199 2.5219548 -2.9404635
-0.41072059 2.5161834 -2.9185069
-0.27590477 2.4545102 -2.6838691
-0.13486969 2.3870194 -2.4270983
0.013308946 2.3160868 -2.1572323
0.16915177 2.2421956 -1.8761108
0.33340463 2.1627414 -1.5738257
0.50680143 2.0786598 -1.2539344
0.69067192 1.9871409 -0.90574777
0 0 0 1 0 0 0 1 0 0 0 1 0 0 0 0 0 412 1 0 0
