ply
format ascii 1.0
comment PCL generated
element vertex 589
property float x
property float y
property float z
element camera 1
property float view_px
property float view_py
property float view_pz
property float x_axisx
property float x_axisy
property float x_axisz
property float y_axisx
property float y_axisy
property float y_axisz
property float z_axisx
property float z_axisy
property float z_axisz
property float focal
property float scalex
property float scaley
property float centerx
property float centery
property int viewportx
property int viewporty
property float k1
property float k2
end_header
2.7876415 3.1538723 2.8366778
2.5172672 3.2489772 2.6065719
2.3653688 3.3100808 2.4016249
2.2758017 3.3533173 2.2097034
2.0742416 3.4303684 1.9774905
2.0736246 3.4480128 1.8050913
2.0969162 3.4586399 1.63931
2.1366987 3.464385 1.4784952
2.2026453 3.4622312 1.327089
2.2802067 3.4565032 1.1805207
2.3881569 3.4413753 1.0471021
2.5034847 3.4238086 0.91841662
2.8269501 3.3414068 0.88424361
3.0439787 3.2913666 0.80956852
3.3237114 3.2211082 0.77012849
3.6607609 3.1320062 0.76646864
3.4127245 2.8297894 3.0009775
3.6521168 2.7769737 2.9211693
3.8093309 2.7467196 2.8228705
3.9475622 2.7215214 2.7219133
4.0449352 2.7076652 2.6104751
4.1406555 2.6941392 2.4999418
4.2034082 2.6899283 2.3792605
4.2655582 2.6858475 2.2588069
4.3082619 2.6873584 2.1313627
4.3422003 2.6914372 2.0002713
4.3641109 2.6990798 1.8637671
4.3654547 2.7128546 1.717605
4.3562775 2.729887 1.5652515
4.3133411 2.7571402 1.3954453
4.2315369 2.7963045 1.2040502
4.0455198 2.8672128 0.95676339
3.4217987 2.6992991 2.8573217
3.6702375 2.646513 2.7822928
3.8459539 2.612705 2.6907816
3.9636574 2.5941978 2.5843687
4.0741911 2.577445 2.4775989
4.1445723 2.5714588 2.3585927
4.2117043 2.5663004 2.2390671
4.2527342 2.5682724 2.1101532
4.2822475 2.573451 1.9764367
4.2937222 2.5837002 1.8346752
4.2820711 2.6005218 1.6818153
4.2426777 2.6253173 1.5146657
4.1718397 2.6592598 1.3301345
3.9828644 2.7271185 1.0851899
3.4107542 2.5728433 2.7065945
3.619751 2.5326869 2.621475
3.7704792 2.5070083 2.52232
3.8812199 2.4913356 2.4127297
3.965107 2.4824321 2.2955523
4.0329781 2.4775918 2.1735573
4.0751486 2.4794025 2.0423217
4.1058035 2.4842498 1.9062911
4.105854 2.497211 1.7570289
4.0941763 2.5134139 1.6011679
4.0276413 2.5443931 1.4189106
3.8886051 2.5951064 1.1994073
3.1909237 2.4824119 2.6424632
3.4469318 2.4334662 2.5685248
3.6175213 2.4046326 2.4731903
3.7317219 2.389179 2.3624749
3.8250608 2.3786523 2.2463579
3.8936567 2.3740788 2.1224904
3.9365339 2.3757908 1.9893756
3.9678726 2.3803773 1.8514563
3.9602747 2.3946998 1.6968611
3.9278641 2.4153786 1.5297838
3.8450155 2.4489584 1.337587
3.5793409 2.5291095 1.0566655
2.9280043 2.3954897 2.565762
3.298727 2.3238037 2.5231166
3.4834757 2.2936208 2.4301343
3.612812 2.2757771 2.3225021
3.7124681 2.264559 2.2068076
3.7814989 2.260287 2.0813801
3.8251152 2.2618613 1.9468173
3.8525934 2.2672112 1.8056267
3.8445015 2.2809467 1.6490122
3.7992849 2.3035665 1.4745957
3.6882935 2.3419909 1.267799
3.1779289 2.2041514 2.4861054
3.3805571 2.1721783 2.3970771
3.5186386 2.1536901 2.2908449
3.6223707 2.1423995 2.175159
3.6916428 2.1384423 2.0484443
3.7356205 2.1399395 1.9126333
3.7602482 2.145679 1.7689143
3.7529707 2.1584828 1.6111819
3.7010679 2.1812699 1.432439
3.5744133 2.2208819 1.2170883
3.0949297 2.0736153 2.4606752
3.3040724 2.0425622 2.3725107
3.4462175 2.0245724 2.2665
3.5516481 2.013768 2.1503158
3.6211548 2.0101001 2.0226078
3.6656027 2.0114758 1.8858885
3.6885958 2.0172396 1.740429
3.6826468 2.0289938 1.5821172
3.6279898 2.0509045 1.4010726
3.4773607 2.0929203 1.1738708
3.0371943 1.9360975 2.4429855
3.2492161 1.9067851 2.3548908
3.3917971 1.8900512 2.2482061
3.4974766 1.8800236 2.1312866
3.5671692 1.8766346 2.00282
3.6119251 1.8779066 1.8653859
3.6347837 1.8833363 1.7190362
3.6298752 1.8941063 1.5603062
3.5752554 1.9144976 1.3784381
3.4165478 1.9551188 1.1467912
2.981369 1.7966256 2.4258819
3.1970329 1.7689961 2.3381295
3.3414345 1.7532827 2.2312765
3.4481421 1.7438936 2.1139574
3.5182123 1.7407438 1.9848753
3.5631533 1.7419294 1.8467563
3.5857992 1.7470229 1.699562
3.5806103 1.7570583 1.5399452
3.5243511 1.7762159 1.3565894
3.357707 1.8151681 1.12059
2.9281359 1.6551749 2.4095712
3.1443195 1.6298083 2.3211985
3.2905464 1.61516 2.2141695
3.3983231 1.6064258 2.096457
3.4687738 1.6035182 1.9667538
3.5139551 1.6046073 1.8279644
3.5363283 1.6093607 1.679895
3.5302944 1.6187372 1.5191499
3.4732523 1.6364676 1.3346568
3.3117771 1.6713768 1.1001364
2.6400309 1.5376378 2.4817519
2.9347286 1.5037731 2.4115915
3.1224728 1.4847438 2.3141813
3.2580948 1.4729557 2.2032609
3.3620892 1.4655813 2.0837293
3.4317846 1.463074 1.9531955
3.4775324 1.4640094 1.8140525
3.5024433 1.4679885 1.6664239
3.5007324 1.4759058 1.5069314
3.455986 1.490238 1.3272458
3.3562002 1.5128624 1.1199186
3.0600529 1.5649248 0.81698716
2.5559092 1.3875543 2.6172843
2.8256865 1.3603984 2.535913
3.0200167 1.3425567 2.4377227
3.1628218 1.3311155 2.3271408
3.2778206 1.3231274 2.2098918
3.3726492 1.3176601 2.0874386
3.4405956 1.3156234 1.9564255
3.4869232 1.3163838 1.8176392
3.5182571 1.319117 1.6727101
3.5221453 1.3254941 1.515781
3.4996767 1.3354281 1.3459989
3.448266 1.3493201 1.160915
3.3512068 1.3694681 0.95136988
3.1286192 1.4067197 0.67687857
2.5117712 1.2321711 2.7641668
2.7884188 1.2073784 2.6817393
2.9788637 1.1920259 2.5805998
3.1296635 1.1809974 2.4713171
3.2589188 1.172303 2.3580074
3.3557014 1.1672256 2.2360721
3.4385633 1.1636928 2.1105924
3.5043859 1.1620884 1.979807
3.5510101 1.1626917 1.8421186
3.5890551 1.164301 1.7008563
3.5997906 1.1691247 1.5478722
3.6003819 1.1751931 1.3892232
3.574173 1.1844966 1.2169811
3.5156822 1.1977391 1.0272844
3.4160004 1.216049 0.81424063
3.2117758 1.2471244 0.54440898
2.4469385 1.0791057 2.9055948
2.7500572 1.0549471 2.8267989
2.941865 1.0414399 2.7242768
3.1059341 1.0305252 2.6176693
3.2396755 1.0224983 2.505024
3.3489685 1.0168188 2.3869309
3.4445248 1.012453 2.2659307
3.5189638 1.0101618 2.138835
3.5842323 1.0087721 2.0090742
3.6304522 1.0092998 1.8724622
3.668252 1.0106908 1.7323414
3.6866331 1.014086 1.5837642
3.6957998 1.018466 1.4301778
3.6798172 1.025496 1.2640244
3.6545448 1.0335675 1.0913761
3.584424 1.0464182 0.89474404
3.4754534 1.0634937 0.67481858
3.2147179 1.0968056 0.37183917
2.1548624 0.94453841 2.9940066
2.6340399 0.90940875 2.9521115
2.8787756 0.89349687 2.8606319
3.072896 0.88167167 2.7606006
3.2112064 0.87443256 2.6483803
3.3410912 0.86783421 2.5360966
3.4368811 0.86407238 2.4151683
3.5318184 0.86034524 2.2952752
3.598074 0.85904706 2.1666236
3.6627741 0.85787016 2.0378625
3.7087212 0.85831082 1.9023587
3.7462797 0.85948902 1.7633618
3.7717752 0.86173886 1.6189537
3.7806664 0.86547816 1.4666039
3.7814846 0.8699733 1.3092972
3.7529364 0.87713611 1.136789
3.7097301 0.88569015 0.95463717
3.6210203 0.89843911 0.74681395
3.4512653 0.9186731 0.49280143
2.382925 0.77140868 3.0474935
2.7448339 0.75017214 2.9796567
2.9699669 0.73823756 2.8846011
3.1428356 0.729837 2.7799892
3.287384 0.7233417 2.6706038
3.4056511 0.71863639 2.5558772
3.5044403 0.71526557 2.4368684
3.5964813 0.71234179 2.3170123
3.6618586 0.71129942 2.1890292
3.7270441 0.71026009 2.0614204
3.7723494 0.71064991 1.9266626
3.808774 0.71169037 1.788206
3.839263 0.71317601 1.6468464
3.8446312 0.71652526 1.4940592
3.8500261 0.719908 1.339818
3.8225203 0.72577262 1.1689059
3.7869043 0.732306 0.99152482
3.7022781 0.74259239 0.78700233
3.5779209 0.75599122 0.55756819
3.1583967 0.79195607 0.16617215
2.4573679 0.61302471 3.0649529
2.7918205 0.59753531 2.9913383
3.029027 0.58730298 2.9001248
3.1839304 0.5815708 2.7913809
3.3338137 0.57606316 2.6841486
3.4434996 0.57277048 2.5674739
3.5448971 0.56991494 2.449863
3.6331177 0.56778216 2.3293283
3.699213 0.56689632 2.2021511
3.7651033 0.56601334 2.0753703
3.8098793 0.5663445 1.9409975
3.8452215 0.56722856 1.8026961
3.8797045 0.56817216 1.6635615
3.8828421 0.57097048 1.5104595
3.885005 0.57385594 1.355395
3.8649607 0.57809287 1.1884943
3.8228683 0.58369339 1.0087153
3.7521095 0.59107727 0.81164759
3.6307707 0.60159779 0.58459401
3.3444586 0.62225747 0.26447368
2.4296961 0.46091071 3.0584626
2.8028946 0.44769043 2.9940915
3.0376902 0.4401145 2.9024019
3.1991882 0.43553692 2.7956109
3.3526411 0.4312526 2.689641
3.4581785 0.42895481 2.5719714
3.5620079 0.42670649 2.455359
3.6482105 0.42518952 2.3344016
3.7151661 0.42448488 2.2077551
3.7818995 0.42378262 2.0815268
3.8262606 0.42404532 1.9472543
3.8605995 0.42474845 1.8088096
3.8950539 0.42545396 1.6699048
3.8982859 0.42754489 1.5170885
3.8981962 0.42980543 1.3612686
3.8825464 0.43278396 1.196611
3.8350639 0.43722191 1.0145441
3.7723608 0.44239369 0.82166398
3.6330128 0.45109552 0.58574027
3.2748537 0.46986416 0.22769904
2.3455648 0.30958974 3.0387316
2.745245 0.30005458 2.9797587
3.0047798 0.29432365 2.8937516
3.1822929 0.29082876 2.7909269
3.3420925 0.28779653 2.6865637
3.4508314 0.28617576 2.5697203
3.5583525 0.28457314 2.4541855
3.6431513 0.28360242 2.3327007
3.710804 0.28311342 2.206223
3.7782249 0.28262606 2.0801797
3.8223505 0.28280854 1.9457613
3.8560514 0.2832965 1.8070012
3.8898678 0.28378615 1.6677619
3.8934011 0.2851721 1.5149914
3.8898754 0.28678149 1.357563
3.8767843 0.28869238 1.1939517
3.8132458 0.29213199 1.0041157
3.7380352 0.29595926 0.80468762
3.5719109 0.30257523 0.55449504
2.2411261 0.15623094 3.0142379
2.6779804 0.15095595 2.9630361
2.9454479 0.14798476 2.8781562
3.1245689 0.14621893 2.7749252
3.2904215 0.14462183 2.6714897
3.4049387 0.14373353 2.5556588
3.5180826 0.14285567 2.4412503
3.60182 0.14238837 2.3188071
3.6627502 0.14224327 2.1893425
3.7235308 0.14209883 2.0601325
3.7705126 0.14215277 1.9259607
3.8112831 0.14229769 1.789204
3.8521385 0.14244291 1.6521684
3.8526096 0.14318384 1.4974829
3.8441038 0.14406537 1.3371812
3.8234663 0.14513662 1.1693426
3.7587271 0.14687859 0.97805703
3.6788092 0.14886735 0.77539504
3.5073137 0.1522613 0.5214622
2.1242599 -4.7902195e-06 2.9868293
2.5999403 -4.7902195e-06 2.9436336
2.8811626 -4.7902195e-06 2.8612595
3.0546074 -4.7902195e-06 2.7555304
3.2205009 -4.7902195e-06 2.6510916
3.3318329 -4.7902195e-06 2.5332599
3.4419155 -4.7902195e-06 2.4167855
3.5268736 -4.7902195e-06 2.293613
3.5882854 -4.7902195e-06 2.1631856
3.6493158 -4.7902195e-06 2.0329299
3.6968784 -4.7902195e-06 1.8978349
3.7379313 -4.7902195e-06 1.7600428
3.7790689 -4.7902195e-06 1.6219684
3.7803602 -4.7902195e-06 1.4664727
3.7755299 -4.7902195e-06 1.3066455
3.7544918 -4.7902195e-06 1.1375074
3.69627 -4.7902195e-06 0.94820416
3.6117773 -4.7902195e-06 0.74224257
3.4346066 -4.7902195e-06 0.48428273
1.9853306 -0.15976366 2.9542465
2.5169201 -0.1531948 2.9229937
2.7920876 -0.15012754 2.8378468
2.9664946 -0.14843829 2.7311049
3.1368265 -0.14678933 2.6266816
3.2515783 -0.14590858 2.5086708
3.3624458 -0.14507401 2.3912601
3.4507399 -0.14455295 2.2680206
3.5126953 -0.14440417 2.1366329
3.5738716 -0.14426507 2.0052762
3.621768 -0.14431691 1.8691455
3.6634445 -0.14445987 1.73043
3.7047901 -0.14460914 1.5912687
3.7039204 -0.14538112 1.433663
3.6985559 -0.14622772 1.2723686
3.6716604 -0.14740348 1.0992756
3.6129103 -0.14906794 0.90835965
3.5222406 -0.15122999 0.69795859
3.3551693 -0.15456977 0.44366086
2.4046717 -0.30949214 2.895087
2.6866026 -0.30318493 2.8101206
2.875247 -0.29942298 2.7058096
3.0474577 -0.29608509 2.60061
3.1699753 -0.29411688 2.4836683
3.2812061 -0.29244915 2.3651657
3.3734188 -0.29130694 2.2420278
3.4355803 -0.29101476 2.1095443
3.4972725 -0.29073307 1.9771999
3.5455084 -0.29083836 1.8400165
3.5876894 -0.29112101 1.7003137
3.6294031 -0.29142031 1.5601116
3.6252518 -0.29307243 1.3998977
3.6204166 -0.29476219 1.2375733
3.5866947 -0.29732892 1.0600601
3.5271511 -0.30069509 0.86736834
3.4201651 -0.30552334 0.64747488
3.2509184 -0.31228521 0.39035106
2.2907925 -0.46896455 2.8667746
2.5772114 -0.45933992 2.7813673
2.7822113 -0.45303383 2.6800184
2.9566317 -0.44795337 2.5741138
3.0860615 -0.44472754 2.4579582
3.1986637 -0.44218558 2.3386531
3.2948809 -0.44031879 2.2156272
3.3572474 -0.43988889 2.0820284
3.4195194 -0.43945867 1.9487003
3.4680719 -0.4396202 1.8104385
3.5105295 -0.44004959 1.6696388
3.5500669 -0.44061169 1.5273215
3.5452938 -0.44313556 1.3655783
3.540494 -0.44568729 1.201984
3.5003433 -0.44984299 1.0202047
3.4396267 -0.45496541 0.82553357
3.3176565 -0.46290439 0.59677565
3.1057129 -0.47500753 0.31609833
2.1637306 -0.63231921 2.8351851
2.4661598 -0.61863047 2.7521782
2.688323 -0.6092934 2.6539912
2.8648682 -0.60242647 2.5473437
3.0019836 -0.59771723 2.432198
3.1157694 -0.59428471 2.3120279
3.2150707 -0.59164375 2.188798
3.2779989 -0.59106165 2.0541906
3.3407488 -0.59048378 1.9198277
3.3897295 -0.59069777 1.7805144
3.4324398 -0.59127921 1.6385938
3.4695625 -0.59219378 1.4940492
3.4650755 -0.59556693 1.3311473
3.4599619 -0.59901267 1.1661235
3.4133759 -0.60496169 0.98006403
3.3511295 -0.61191052 0.78323382
3.2132635 -0.62347996 0.54514474
2.9358168 -0.64361024 0.22921968
2.0026026 -0.80154896 2.7951257
2.3528767 -0.78116578 2.7224021
2.5927887 -0.76829314 2.6275079
2.7710304 -0.75962365 2.5199685
2.9167223 -0.75316495 2.4060743
3.031229 -0.74885368 2.2848735
3.1342373 -0.74531853 2.1616251
3.1977358 -0.74457943 2.0259962
3.260582 -0.74387985 1.8904431
3.3101101 -0.74413759 1.7501026
3.353323 -0.74485773 1.6071407
3.3876467 -0.74623585 1.4601928
3.3838129 -0.75043565 1.2962681
3.3781843 -0.75481248 1.1297075
3.3241606 -0.76283383 0.93888676
3.261076 -0.77161801 0.74019015
3.1067553 -0.78735226 0.49246752
2.7299185 -0.82006723 0.12393069
1.7964621 -0.97897732 2.743876
2.2372274 -0.94705003 2.6920047
2.495038 -0.93014991 2.60041
2.6755066 -0.91959983 2.4921017
2.8300467 -0.91114032 2.379518
2.9447613 -0.90598631 2.2570996
3.0521049 -0.90141052 2.1340156
3.1158724 -0.90053648 1.9972401
3.1791782 -0.89969331 1.8606058
3.2290401 -0.90000993 1.7191371
3.2729073 -0.90085363 1.5751711
3.3043938 -0.90279329 1.4257842
3.3001118 -0.90791094 1.2603422
3.2950745 -0.91314965 1.0926991
3.2331648 -0.923518 0.89688742
3.1582918 -0.93515962 0.69106168
2.9980373 -0.95462525 0.43869746
2.1186781 -1.116434 2.6608446
2.3962269 -1.0948433 2.5730181
2.5783415 -1.0824215 2.4637551
2.7408123 -1.0718163 2.3521776
2.8568935 -1.0657121 2.2288771
2.968585 -1.0599841 2.1059399
3.0325651 -1.0589857 1.9679763
3.0964527 -1.0579865 1.830283
3.1466818 -1.0583616 1.6876785
3.1908188 -1.0593617 1.5425369
3.2197695 -1.0619283 1.3908092
3.2149687 -1.0679978 1.2237974
3.2043648 -1.0747323 1.0523059
3.1405697 -1.0870746 0.85415
3.0506868 -1.1022787 0.63962859
2.8870068 -1.1254092 0.38378453
1.9976254 -1.2893946 2.6290269
2.289238 -1.2632139 2.5433588
2.4796171 -1.2481487 2.4349544
2.6517601 -1.2349918 2.3248925
2.7675619 -1.2280982 2.2001841
2.8838768 -1.2210759 2.0774641
2.9479198 -1.219977 1.9382433
3.0124006 -1.2188166 1.7994748
3.0630026 -1.2192523 1.6557161
3.1075583 -1.2203969 1.5094362
3.1337976 -1.2236981 1.3552767
3.1288099 -1.2307097 1.1868168
3.1117468 -1.2392241 1.0110632
3.0474062 -1.2534528 0.81115019
2.9408073 -1.2728869 0.58710831
2.705204 -1.3080398 0.29386771
1.848773 -1.4692034 2.5899014
2.1711864 -1.4359676 2.5106335
2.3805695 -1.4166908 2.4060595
2.561202 -1.4008735 2.2971468
2.6779804 -1.3930517 2.1714106
2.7945404 -1.3851784 2.0474334
2.8623829 -1.3835108 1.9081963
2.9269905 -1.3822454 1.7681688
2.9779711 -1.3827436 1.6232368
3.0233936 -1.3839753 1.4759761
3.0463591 -1.3881779 1.3191386
3.0425062 -1.3959761 1.1497737
3.0177002 -1.4066459 0.96918452
2.9529896 -1.4227691 0.76757157
2.8286104 -1.4470919 0.53348076
1.4298497 -1.6907198 2.4797902
2.0506411 -1.6123705 2.4772165
2.2797394 -1.5882665 2.3766444
2.4640923 -1.5702378 2.2673934
2.5874596 -1.5606812 2.1423352
2.7043705 -1.5519485 2.0171218
2.7755184 -1.5496874 1.8776835
2.8404894 -1.5482932 1.7364625
2.8921509 -1.5488124 1.5904566
2.9378633 -1.5502032 1.4419738
2.9589663 -1.5552106 1.2830187
2.9548264 -1.5639846 1.1121398
2.923254 -1.5769088 0.92712748
2.8568659 -1.595147 0.72320622
2.703558 -1.6265732 0.47370887
1.884757 -1.7991157 2.431231
2.1769466 -1.7629788 2.3466568
2.3632994 -1.7429165 2.2365112
2.4954557 -1.7311116 2.1127837
2.6123705 -1.7215779 1.9861952
2.6871128 -1.7185979 1.846629
2.7526026 -1.7170534 1.7042488
2.8049002 -1.7175955 1.55713
2.8509083 -1.7191503 1.4074041
2.8700819 -1.7250419 1.2462822
2.865736 -1.7348017 1.0739013
2.8263006 -1.7503736 0.88395518
2.7589884 -1.7706705 0.67803013
2.5140524 -1.8203917 0.38312876
1.6638432 -1.9997302 2.3699903
2.0611334 -1.9427744 2.3128707
2.2606621 -1.9187541 2.2050643
2.4019308 -1.9044123 2.0827436
2.5187702 -1.894106 1.9547309
2.597249 -1.890294 1.8150626
2.6628952 -1.8886619 1.6713668
2.7158127 -1.8892254 1.5231014
2.7625198 -1.8908799 1.3722655
2.7785559 -1.8979388 1.2084547
2.7751398 -1.908506 1.0350157
2.7276001 -1.9270166 0.84000319
2.6060772 -1.9589247 0.60745353
0.98222637 -2.2902455 2.181036
1.8790312 -2.1379316 2.2597466
2.1427364 -2.100297 2.1689329
2.3052845 -2.0809436 2.0517008
2.4235268 -2.0696089 1.9227139
2.5058908 -2.0648456 1.7829708
2.5716887 -2.0631366 1.6379362
2.625021 -2.0637572 1.488422
2.6726961 -2.0654552 1.3365556
2.685421 -2.0738211 1.169962
2.6827154 -2.0852261 0.99534523
2.5943184 -2.1132288 0.78065312
2.3863134 -2.164649 0.50602114
1.174246 -2.4288373 2.234267
1.6214962 -2.3530426 2.1846161
1.9714527 -2.2957177 2.1164534
2.1873922 -2.2644391 2.0138345
2.3266306 -2.2481592 1.8901414
2.413065 -2.2423112 1.7503639
2.4789457 -2.2405498 1.6039425
2.5327005 -2.2412295 1.4531585
2.581336 -2.2429595 1.3002349
2.5903482 -2.2528267 1.1306683
2.5559521 -2.2717395 0.94093668
2.4264078 -2.3105543 0.70588279
2.1529446 -2.3797407 0.39830935
1.7039528 -2.4864006 -0.0040816069
1.2387915 -2.5887907 2.2521598
1.5718002 -2.5315897 2.1701179
1.8111973 -2.4936399 2.0673528
2.0314341 -2.4593842 1.9637407
2.1875582 -2.4384973 1.8433908
2.29811 -2.4271975 1.7099835
2.3751602 -2.423023 1.5659009
2.4229412 -2.4251652 1.411234
2.4664888 -2.4282539 1.2545773
2.4423256 -2.4462407 1.0694901
2.3816309 -2.4724786 0.86611521
2.2951136 -2.5047231 0.64741725
2.1628952 -2.5475028 0.40290177
1.592764 -2.6956499 2.1762338
1.8027496 -2.6617908 2.0647645
1.972271 -2.6367769 1.9447378
2.0939503 -2.6224272 1.8119235
2.1976633 -2.6120517 1.6746994
2.277667 -2.6070366 1.5301658
2.3276987 -2.608916 1.3748547
2.3645544 -2.6138847 1.2140533
2.3631353 -2.6278679 1.0367609
2.3478413 -2.6452649 0.85161173
2.2946033 -2.6718249 0.64719027
2.1829519 -2.712564 0.41215909
1.8056145 -2.8274648 2.0656424
1.9673653 -2.8027587 1.9431615
2.0886116 -2.7876232 1.8101293
2.1866846 -2.7779808 1.6708428
2.2644863 -2.773205 1.5253345
2.3154631 -2.774986 1.3701812
2.3543577 -2.7797761 1.2099992
2.3583784 -2.7932932 1.0347944
2.3509235 -2.8098226 0.85293543
2.2783175 -2.8429086 0.639938
2.1544619 -2.9497066 1.6595241
2.2487698 -2.9404113 1.5195738
2.2957783 -2.9433529 1.3626624
0 0 0 1 0 0 0 1 0 0 0 1 0 0 0 0 0 589 1 0 0
