ply
format ascii 1.0
comment PCL generated
element vertex 461
property float x
property float y
property float z
element camera 1
property float view_px
property float view_py
property float view_pz
property float x_axisx
property float x_axisy
property float x_axisz
property float y_axisx
property float y_axisy
property float y_axisz
property float z_axisx
property float z_axisy
property float z_axisz
property float focal
property float scalex
property float scaley
property float centerx
property float centery
property int viewportx
property int viewporty
property float k1
property float k2
end_header
-1.3637433 -0.71645498 5.8840652
-1.2259641 -0.76142466 5.966506
-1.0973399 -0.78006107 6.0006714
-0.97062582 -0.7948302 6.0277472
-0.76154715 0.34719217 3.934123
-0.59736949 0.26499748 4.0848069
-0.44033793 0.21307576 4.1799927
-0.28831324 0.19862974 4.2064762
-0.13713425 0.18549979 4.230547
0.013309304 0.20305955 4.1983547
0.16582367 0.25946081 4.0949569
-1.6223562 -0.81135774 5.7976732
-1.4894863 -0.83178753 5.8363419
-1.3594234 -0.84705836 5.8652463
-1.2326009 -0.85411268 5.8785982
-1.0994933 -0.8870216 5.9408875
-0.96872115 -0.91800672 5.9995351
-0.83904183 -0.95241362 6.0646591
-0.71422404 -0.97011101 6.098156
-0.73847586 0.041950345 4.1825609
-0.58309114 -0.0017620325 4.2652984
-0.4318434 -0.026656449 4.312418
-0.28231463 -0.046559691 4.35009
-0.13428958 -0.05398047 4.3641357
0.01330911 -0.049684167 4.3560038
0.16130534 -0.040148735 4.3379555
0.31125358 -0.0062084198 4.2737145
0.46671614 0.069031954 4.1313019
-1.7592847 -0.902044 5.7002678
-1.635519 -0.8946296 5.6857686
-1.5365424 -0.81606811 5.5321369
-1.408644 -0.81220376 5.52458
-1.2779055 -0.81717819 5.5343084
-1.1463605 -0.82629228 5.5521307
-1.0115509 -0.85149443 5.6014152
-0.87664759 -0.88434869 5.6656637
-0.73921776 -0.94240737 5.7792006
-0.58911538 -1.109464 6.1058893
-0.46977338 -1.0997958 6.0869827
-0.42604825 -0.23064792 4.3873158
-0.27866435 -0.24640799 4.4181352
-0.13256834 -0.25010145 4.4253578
0.013309319 -0.25380278 4.4325962
0.15933484 -0.24509311 4.4155636
0.30652145 -0.22544241 4.3771358
0.45604357 -0.19255483 4.3128223
0.61040324 -0.13517523 4.2006135
0.81646311 0.24918818 3.4489691
-1.8972478 -0.99542296 5.604743
-1.8065188 -0.90929371 5.4305973
-1.6815164 -0.89667332 5.4050798
-1.5570047 -0.88060504 5.372592
-1.4293814 -0.8709228 5.3530149
-1.3023067 -0.85749936 5.3258743
-1.1710851 -0.85625541 5.323359
-1.039041 -0.85808533 5.3270588
-0.89976221 -0.8944515 5.400588
-0.75767058 -0.95836323 5.5298119
-0.61684 -1.0395409 5.6939459
-0.46601275 -1.2435553 6.1064444
-0.34793827 -1.2242923 6.0674963
-0.27551669 -0.43457901 4.470767
-0.13099708 -0.43809366 4.4778733
0.013309348 -0.43346429 4.4685135
0.15798417 -0.42594349 4.4533067
0.30321753 -0.41676515 4.4347486
0.45021871 -0.39431214 4.3893509
0.60094863 -0.35240877 4.304626
0.75895768 -0.27935475 4.1569176
0.96237069 0.018377185 3.55493
-2.034328 -1.0950058 5.5187001
-1.9454296 -1.0117042 5.3444214
-1.8233248 -0.99234092 5.3039112
-1.6997447 -0.9736287 5.2647624
-1.5766406 -0.9505291 5.2164345
-1.4547522 -0.91969568 5.151927
-1.3303136 -0.89084947 5.0915766
-1.2062656 -0.85420632 5.0149136
-1.0856233 -0.79479074 4.8906078
-0.96053928 -0.73868698 4.7732306
-0.83215791 -0.68145216 4.6534872
-0.64538562 -0.97473037 5.267067
-0.49070826 -1.15809 5.6506815
-0.34452406 -1.3731711 6.1006622
-0.27228957 -0.62107903 4.5271783
-0.1296833 -0.61490542 4.5142622
0.01330917 -0.60770917 4.4992065
0.15676099 -0.60021722 4.4835324
0.30114305 -0.58533901 4.452405
0.44670382 -0.56782448 4.4157619
0.59471101 -0.53951001 4.356524
0.74722999 -0.49366689 4.2606139
0.91094267 -0.40345192 4.0718713
1.1449515 -0.017917097 3.2652774
-2.1738467 -1.1934848 5.4273767
-2.0474055 -1.1891875 5.4180665
-1.9582986 -1.1070602 5.2401285
-1.837168 -1.0842007 5.1906018
-1.7176123 -1.0540652 5.1253099
-1.5995388 -1.0150721 5.0408273
-1.4800723 -0.97292149 4.9495039
-1.3639067 -0.91209394 4.8177147
-1.2537862 -0.81689918 4.6114655
-1.1440631 -0.69636428 4.3503141
-1.2165427 0.26655531 2.2640507
-1.0619452 0.37568903 2.0276012
-0.89969218 0.48095608 1.7995298
-0.73022169 0.58284307 1.5787814
-0.34512356 -1.4783945 6.044663
-0.22483014 -1.4910568 6.0720968
-0.12828307 -0.79195416 4.5574198
0.01330914 -0.77570093 4.5222054
0.15588154 -0.76152575 4.4914932
0.29937401 -0.74724746 4.4605579
0.4437961 -0.73286557 4.4293985
0.59009677 -0.71109939 4.3822393
0.74047911 -0.67269945 4.2990422
0.89820749 -0.6090951 4.1612368
1.0878845 -0.42199051 3.7558556
1.3826847 0.12621641 2.5681095
-2.1753101 -1.3110803 5.3756495
-2.089839 -1.2296605 5.1928062
-1.9703242 -1.2057112 5.1390243
-1.8525355 -1.1746304 5.0692263
-1.7341762 -1.1400888 4.9916568
-1.6181202 -1.0940111 4.8881812
-1.5058832 -1.029104 4.7424202
-1.3999102 -0.93235695 4.525157
-1.2934563 -0.81571823 4.2632236
-1.3773291 0.046329498 2.3273385
-1.2304349 0.16217542 2.0671852
-1.0752479 0.27502799 1.813754
-0.91200989 0.38454556 1.5678129
-0.74109292 0.49101818 1.328709
-0.56237501 0.59019303 1.1059937
-0.22402041 -1.6144781 6.0569844
-0.12646155 -0.97904873 4.630012
0.013309289 -0.93761313 4.5369611
0.15501241 -0.92086828 4.4993572
0.29786143 -0.90362811 4.4606409
0.44196552 -0.88528347 4.419445
0.58751637 -0.8652252 4.3744006
0.73619699 -0.83434176 4.3050461
0.89059311 -0.78507328 4.1944046
1.0619044 -0.67713481 3.9520092
1.2918259 -0.37561333 3.2748878
1.7710943 0.69299793 0.87512636
-2.1826615 -1.4187329 5.3003211
-2.0981379 -1.3373234 5.110651
-1.9792209 -1.3119465 5.051527
-1.8623785 -1.2786219 4.9738865
-1.7475538 -1.2356422 4.8737507
-1.6358945 -1.1778049 4.7390003
-1.5303979 -1.0931078 4.5416708
-1.4264266 -0.98702216 4.2945094
-1.5316045 -0.17943907 2.4129801
-1.3914385 -0.064607143 2.1454415
-1.2427014 0.047313929 1.8846849
-1.0856565 0.15615177 1.6311113
-0.92059052 0.26172256 1.3851498
-0.74784648 0.36408567 1.1466614
-0.56777364 0.46342731 0.91521215
-0.22391979 -1.7267984 6.0180602
-0.10576968 -1.7132511 5.9864969
0.013308961 -1.0999494 4.5576105
0.15445976 -1.0693747 4.4863768
0.29681358 -1.051827 4.4454932
0.44037998 -1.0341823 4.4043841
0.5852052 -1.0161821 4.3624468
0.73238659 -0.9916327 4.3052511
0.884767 -0.94999099 4.2082329
1.0470574 -0.87894595 4.0427103
1.2537 -0.66393292 3.5417671
1.7469888 0.4324137 0.98746896
-2.318146 -1.5295057 5.230278
-2.1903617 -1.5266141 5.2232819
-2.1037335 -1.4507257 5.0396667
-1.9866371 -1.4220761 4.9703479
-1.8715972 -1.3851855 4.8810897
-1.759056 -1.3371931 4.7649698
-1.6501397 -1.2726707 4.6088557
-1.5478967 -1.179286 4.3829074
-1.4452755 -1.0682927 4.1143551
-1.5385561 -0.31798697 2.2989602
-1.3985069 -0.20369285 2.0224211
-1.2497103 -0.092029095 1.7522464
-1.0923921 0.016746998 1.4890583
-0.9268074 0.12234867 1.2335508
-0.75331438 0.2249217 0.98537111
-0.57222885 0.32442153 0.74462748
-0.22415964 -1.8342175 5.9675407
-0.10538934 -1.835237 5.9700069
0.01330908 -1.2600186 4.5782433
0.1539291 -1.2162123 4.4722524
0.29599744 -1.1957641 4.4227767
0.43936631 -1.1767077 4.3766694
0.58411038 -1.1574686 4.3301196
0.73111278 -1.1331776 4.2713466
0.88282073 -1.0948325 4.1785693
1.0435736 -1.0309578 4.0240216
1.2433825 -0.84519535 3.5745618
1.5163848 -0.4710657 2.6693404
-2.3156586 -1.6542783 5.1935525
-2.2255709 -1.591159 5.0347829
-2.1066492 -1.5693555 4.979939
-1.9898856 -1.5407162 4.9078999
-1.8751671 -1.5039972 4.8155375
-1.7631027 -1.4560547 4.694943
-1.6556796 -1.3895612 4.5276856
-1.5547724 -1.2948048 4.2893362
-1.6754838 -0.57599747 2.4812548
-1.5439005 -0.462852 2.1966496
-1.4032483 -0.35237086 1.9187462
-1.2538197 -0.24455494 1.6475471
-1.0958819 -0.13952643 1.3833593
-0.9296003 -0.038046062 1.1280963
-0.75549752 0.060782909 0.87950325
-0.57384413 0.1567899 0.63800788
-0.22487669 -1.9353472 5.9005508
-0.10514443 -1.9528 5.9444518
0.013308812 -1.4018633 4.5586305
0.15370943 -1.3535777 4.4371734
0.29565004 -1.3325526 4.3842869
0.43883941 -1.314172 4.3380523
0.58340216 -1.2956157 4.2913761
0.72999465 -1.2733912 4.2354727
0.88104361 -1.238297 4.1471972
1.0403736 -1.1809304 4.0028977
1.233305 -1.0232263 3.60621
1.4929689 -0.69811803 2.7884359
1.9530107 0.10907388 0.75803232
-2.3156092 -1.77522 5.1475725
-2.2257791 -1.7138662 4.9869466
-2.1068771 -1.6927551 4.9316769
-1.9901268 -1.6650469 4.8591356
-1.8754425 -1.6294894 4.7660451
-1.7633874 -1.5831287 4.644671
-1.656019 -1.5187421 4.4761047
-1.5551112 -1.4271613 4.2363434
-1.6756388 -0.73335218 2.4199276
-1.5440657 -0.62400138 2.1336434
-1.4033613 -0.51741153 1.8545877
-1.2539153 -0.41329843 1.582016
-1.0959407 -0.31196254 1.3167152
-0.92964208 -0.21399426 1.060231
-0.75552905 -0.11855578 0.81036997
-0.57385653 -0.025934815 0.56788516
-0.22500227 -2.044946 5.8537245
-0.10512476 -2.063977 5.9035482
0.01330917 -1.5321467 4.5111985
0.153697 -1.4850738 4.3879604
0.2956284 -1.4647145 4.3346586
0.43880716 -1.4469657 4.2881918
0.58335769 -1.4290468 4.2412796
0.72992671 -1.4076548 4.1852746
0.88093525 -1.373877 4.0968432
1.0402052 -1.3186307 3.9522066
1.2328621 -1.1671473 3.5556178
1.4920474 -0.85440135 2.7368383
1.9529163 -0.072378337 0.68947577
-2.317852 -1.8929183 5.0927601
-2.1908102 -1.8892268 5.0826883
-2.1039612 -1.8211794 4.8970408
-1.9868824 -1.795319 4.8264875
-1.8718677 -1.7620149 4.7356272
-1.7593389 -1.7187219 4.6175146
-1.651022 -1.6592872 4.4553638
-1.5490052 -1.5744781 4.2239861
-1.4467701 -1.4732616 3.9478455
-1.5387201 -0.80075938 2.1131144
-1.3986192 -0.69791538 1.8325337
-1.2498095 -0.59733224 1.5581211
-1.0924584 -0.4994303 1.2910236
-0.92686176 -0.40431404 1.0315259
-0.75334293 -0.3120116 0.77970481
-0.57224768 -0.22241426 0.53526402
-0.22420751 -2.1663642 5.838779
-0.10536079 -2.1686153 5.8449202
0.013308961 -1.6510476 4.4328842
0.15391661 -1.6106296 4.3226151
0.29597536 -1.5921681 4.2722483
0.43933448 -1.5749872 4.2253747
0.5840683 -1.5576602 4.1781034
0.73104376 -1.5358588 4.1186242
0.88271195 -1.5014322 4.0247011
1.0433793 -1.4441398 3.8683953
1.2429732 -1.2774098 3.4135196
1.5155472 -0.94147682 2.4970222
-2.1834197 -2.0209975 5.0667481
-2.0988116 -1.9526834 4.8722715
-1.9799761 -1.9311688 4.8110232
-1.8631129 -1.9031273 4.731195
-1.7483504 -1.8668137 4.6278172
-1.636844 -1.8177998 4.4882846
-1.5315208 -1.7461019 4.2841744
-1.4274112 -1.6570907 4.0307779
-1.5321121 -0.97984409 2.1027918
-1.391844 -0.88353884 1.8286301
-1.2429777 -0.78981102 1.5618055
-1.085875 -0.69847721 1.3017966
-0.92072886 -0.61002225 1.0499828
-0.74794036 -0.52415085 0.80552435
-0.56783253 -0.44081026 0.56827021
-0.22394942 -2.280463 5.8053942
-0.10572492 -2.2705483 5.7771692
0.01330908 -1.7558495 4.311924
0.15442429 -1.7295324 4.2370048
0.29674676 -1.7147484 4.1949177
0.44028363 -1.6999002 4.1526475
0.5850755 -1.6847889 4.1096292
0.73217028 -1.6644359 4.0516877
0.88465482 -1.6288579 3.9504042
1.0468622 -1.5694156 3.7811842
1.2532525 -1.3895154 3.2690444
1.7467301 -0.46804523 0.6458025
-2.1756661 -2.1524594 5.0526142
-2.0904574 -2.0883064 4.861773
-1.9710156 -2.0693843 4.8054843
-1.8532624 -2.0449166 4.732698
-1.735504 -2.0166945 4.6487427
-1.6196023 -1.9801214 4.5399456
-1.5075434 -1.9286666 4.386879
-1.4017072 -1.8522551 4.1595712
-1.2967895 -1.7564583 3.8745959
-1.3777654 -1.0890938 1.8893299
-1.2305186 -0.99941367 1.6225506
-1.0746143 -0.91384542 1.3680035
-0.91200745 -0.82564002 1.1056113
-0.74119061 -0.74170423 0.85592031
-0.56247246 -0.66387826 0.62440443
-0.22397183 -2.3910198 5.7622805
-0.12631388 -1.8965341 4.2912917
0.013309378 -1.862349 4.1895986
0.15495865 -1.8487601 4.1491742
0.29779652 -1.8347675 4.1075492
0.44187072 -1.8203876 4.0647721
0.58737034 -1.8047986 4.0183978
0.73594999 -1.7809287 3.9473906
0.89022309 -1.7426513 3.8335235
1.060588 -1.6611356 3.5910313
1.2899264 -1.4262702 2.8923576
1.7707345 -0.58511126 0.39008951
-2.1736186 -2.2754726 5.0151567
-2.0496449 -2.268868 4.9945936
-1.9593515 -2.2105641 4.8130751
-1.8383117 -2.1936362 4.7603722
-1.7187525 -2.1715271 4.6915388
-1.6008072 -2.1426883 4.6017547
-1.4821277 -2.1101179 4.5003519
-1.3663547 -2.0644541 4.3581853
-1.2563862 -1.9940464 4.1389823
-1.363188 -1.2927725 1.9556803
-1.2141612 -1.2182943 1.7238045
-1.0581882 -1.145189 1.4962034
-0.89635324 -1.0693802 1.2601848
-0.7280609 -0.99220276 1.0199058
-0.3453562 -2.4811523 5.6555061
-0.22470908 -2.4935122 5.6939869
-0.12816586 -1.9850469 4.1109638
0.013308991 -1.9717655 4.0696144
0.15582784 -1.9614211 4.0374088
0.29926783 -1.9509931 4.0049424
0.44363987 -1.9404891 3.97224
0.58993292 -1.9243667 3.9220457
0.7402153 -1.8966342 3.835705
0.89773935 -1.8508334 3.6931114
1.0863926 -1.7174654 3.2778926
1.5787146 -0.75833517 0.29179716
-2.0348861 -2.4093306 5.0139141
-1.946385 -2.3521745 4.8273668
-1.8243823 -2.3387783 4.7836437
-1.7012204 -2.3252549 4.7395067
-1.5781741 -2.3092694 4.6873331
-1.4564158 -2.2878366 4.6173797
-1.3327585 -2.266238 4.546886
-1.2089764 -2.2401395 4.4617057
-1.0892197 -2.1965997 4.3195992
-0.96708107 -2.1480026 4.1609874
-0.83804625 -2.1081462 4.0309033
-0.87867409 -1.3160582 1.4456725
-0.49205604 -2.4455857 5.1322441
-0.34441236 -2.599664 5.6351275
-0.27203569 -2.0912225 3.9756675
-0.12960778 -2.0859208 3.9583638
0.013309229 -2.0810106 3.942338
0.15670802 -2.075465 3.9242377
0.30103889 -2.0653515 3.8912289
0.44652078 -2.0536537 3.8530502
0.5943858 -2.0348766 3.7917647
0.74667668 -2.0044081 3.6923211
0.90872157 -1.948818 3.5108848
-2.0402608 -2.5219407 4.9443259
-1.898386 -2.5406654 5.0085115
-1.8077664 -2.4860454 4.8212833
-1.682889 -2.4777403 4.7928133
-1.5588384 -2.4666204 4.7546978
-1.4312481 -2.4601612 4.7325554
-1.3041987 -2.4512858 4.7021322
-1.1735826 -2.4486685 4.6931605
-1.0411763 -2.4500425 4.6978712
-0.90222514 -2.4712238 4.7704778
-0.75995696 -2.5109453 4.9066358
-0.6182521 -2.5642145 5.0892334
-0.46607062 -2.698504 5.5495558
-0.34706995 -2.6926615 5.5295296
-0.27533159 -2.1902854 3.807466
-0.13090293 -2.1925392 3.8151917
0.01330908 -2.189208 3.8037727
0.15791142 -2.1844366 3.7874165
0.30304697 -2.1788945 3.76842
0.44999614 -2.1644981 3.7190709
0.60055953 -2.1385376 3.6300828
0.75821197 -2.0935192 3.4757674
-1.9016318 -2.6554313 4.947557
-1.7600746 -2.6751122 5.0185518
-1.66664 -2.6244142 4.8356686
-1.5380789 -2.6233141 4.8317003
-1.4101648 -2.6208477 4.8228025
-1.2796652 -2.6230149 4.8306212
-1.1480803 -2.6280544 4.8487997
-1.0134279 -2.6419582 4.8989544
-0.87826794 -2.661273 4.9686303
-0.7404139 -2.6959298 5.093648
-0.58902627 -2.7981224 5.4622884
-0.46869114 -2.7974682 5.4599276
-0.4257296 -2.284935 3.6110611
-0.27848461 -2.2938437 3.6431983
-0.13247742 -2.2960362 3.6511064
0.01330911 -2.2982321 3.6590285
0.15924822 -2.2930059 3.6401753
0.30630723 -2.2819047 3.6001306
0.45562378 -2.2632771 3.5329337
0.60956168 -2.231056 3.4167027
-1.6220591 -2.8099349 5.0360932
-1.4906386 -2.8187892 5.0697799
-1.3613331 -2.8256197 5.095767
-1.2601378 -2.7806997 4.9248662
-1.1031674 -2.8429005 5.1615114
-0.97039658 -2.8634925 5.2398553
-0.83919126 -2.8857412 5.3245006
-0.71382928 -2.8970044 5.3673515
-0.73777467 -2.3485076 3.2805789
-0.58260196 -2.3719196 3.3696501
-0.43151101 -2.3852291 3.4202862
-0.28209302 -2.3960421 3.4614253
-0.13418263 -2.4000015 3.4764884
0.01330917 -2.3981457 3.4694285
0.16115397 -2.3933241 3.4510849
0.31093597 -2.3750262 3.3814704
0.4658933 -2.3363292 3.234246
-1.3591143 -2.9459844 5.0657501
-1.2250803 -2.9626315 5.132709
-1.0960873 -2.972918 5.1740842
-0.96867949 -2.9822168 5.2114863
-0.75937134 -2.4112527 2.9149177
-0.59620404 -2.4500108 3.0708132
-0.43972966 -2.474535 3.1694555
-0.28787386 -2.4821048 3.199904
-0.13688271 -2.4892893 3.228802
0.01330908 -2.4800229 3.1915302
0.16543247 -2.4545941 3.0892487
0 0 0 1 0 0 0 1 0 0 0 1 0 0 0 0 0 461 1 0 0
