ply
format ascii 1.0
comment PCL generated
element vertex 582
property float x
property float y
property float z
element camera 1
property float view_px
property float view_py
property float view_pz
property float x_axisx
property float x_axisy
property float x_axisz
property float y_axisx
property float y_axisy
property float y_axisz
property float z_axisx
property float z_axisy
property float z_axisz
property float focal
property float scalex
property float scaley
property float centerx
property float centery
property int viewportx
property int viewporty
property float k1
property float k2
end_header
-0.25489926 0.83329034 3.1016254
-0.20943218 0.63483596 3.3089235
-0.11666954 0.5343864 3.4631696
-0.010842443 0.46257687 3.601377
0.11962473 0.43788457 3.7154236
-1.2812142 -0.0744766 2.9237871
-1.2340295 -0.26998055 3.1345482
-1.0861559 -0.24562073 3.2170069
-0.93258131 -0.21109724 3.2942748
-0.77455306 -0.16967297 3.3684297
-0.60216379 -0.10294294 3.4297779
-0.40116096 0.013734102 3.4660378
-0.18711042 0.14835811 3.4952385
-0.0063995123 0.21734762 3.5604208
0.12431586 0.19649243 3.6717744
0.2710017 0.20362163 3.7690277
-1.9375122 -0.60840976 2.6984422
-1.8870958 -0.80250359 2.9151413
-1.7678263 -0.82786608 3.0231357
-1.6389976 -0.8306098 3.1167908
-1.5102433 -0.83335161 3.2103915
-1.367365 -0.80657208 3.2864418
-1.2083462 -0.7486608 3.3448656
-1.0440124 -0.68343234 3.4002228
-0.87569213 -0.61400998 3.4544864
-0.69917947 -0.53286827 3.5036108
-0.51270545 -0.43767262 3.5466704
-0.30383146 -0.30737996 3.5728297
-0.082368016 -0.16149437 3.5933468
0.14315176 -0.015539646 3.616668
0.29685235 0.0050396919 3.7061541
0.45258963 0.027995586 3.7948642
-2.3615308 -0.9624207 2.4863665
-2.3015113 -1.1384296 2.6975677
-2.208111 -1.2211101 2.8428869
-2.0895481 -1.2390323 2.9439077
-1.9708604 -1.2555298 3.0436509
-1.8461832 -1.2577603 3.1339495
-1.7030534 -1.2202516 3.1991935
-1.5584223 -1.1817921 3.2645874
-1.4097651 -1.1373495 3.3270917
-1.2589357 -1.0910661 3.3893666
-1.0970905 -1.0261369 3.4415529
-0.92161977 -0.93914342 3.4822185
-0.73911607 -0.84376144 3.5198135
-0.5486511 -0.73896527 3.5540123
-0.35003442 -0.62510598 3.5852847
-0.14126241 -0.49943626 3.6124144
0.094493985 -0.3349632 3.6214194
0.33369863 -0.1723218 3.6346183
0.49822843 -0.13479614 3.7149785
0.65932024 -0.10419786 3.7995493
-2.6521957 -1.3372283 2.4018111
-2.5882812 -1.5008039 2.6082063
-2.483808 -1.549751 2.7303162
-2.3716059 -1.5763811 2.8358984
-2.2600269 -1.6027086 2.940742
-2.1345265 -1.595431 3.0223126
-2.0011778 -1.5711859 3.092711
-1.8655144 -1.5434307 3.1612873
-1.7278488 -1.513128 3.2287691
-1.5882273 -1.4805887 3.2954292
-1.4333174 -1.4196974 3.3449597
-1.2729391 -1.3516052 3.3912606
-1.1082543 -1.2790523 3.4362111
-0.93757194 -1.1993029 3.4783101
-0.76196641 -1.1148053 3.5192113
-0.57501376 -1.0147821 3.5528359
-0.36884147 -0.88703096 3.5727253
-0.1516459 -0.74702406 3.5883317
0.078385353 -0.59267485 3.5988803
0.32459557 -0.41966307 3.6024773
0.55215144 -0.28297663 3.6286817
0.72539055 -0.23416901 3.7030814
-2.7865534 -1.2895391 2.0142157
-2.7648337 -1.5829618 2.3267527
-2.6967747 -1.7314534 2.52527
-2.6011496 -1.7987688 2.6610641
-2.504705 -1.8593332 2.7906008
-2.3977258 -1.8907245 2.8980393
-2.2709637 -1.8745348 2.9712768
-2.1428571 -1.8563805 3.0434749
-2.0132382 -1.8360792 3.1145682
-1.8807478 -1.8109784 3.182831
-1.7350329 -1.7604392 3.2346809
-1.5854223 -1.7050521 3.2843754
-1.4330711 -1.6474364 3.3337507
-1.2764161 -1.5848461 3.3811312
-1.1159713 -1.5186064 3.427495
-0.94466144 -1.4364278 3.4653988
-0.75978327 -1.3348122 3.4932108
-0.56785494 -1.2261821 3.5189042
-0.36789852 -1.1094213 3.5420394
-0.15708977 -0.98053515 3.5605674
0.07438004 -0.82488251 3.566596
0.33426845 -0.63227189 3.5552888
0.60859835 -0.4261713 3.5405304
0.792081 -0.36289835 3.6061893
-2.8498263 -1.3981121 1.8307371
-2.828413 -1.6946669 2.1545343
-2.7604694 -1.8442943 2.3583109
-2.6763062 -1.9411736 2.5186555
-2.5864635 -2.0170588 2.6611657
-2.4873319 -2.0655007 2.7816811
-2.3796134 -2.0908694 2.884253
-2.2687373 -2.107538 2.9800034
-2.1480839 -2.1019893 3.0595431
-2.0097957 -2.0597434 3.1133575
-1.8695042 -2.015903 3.1669297
-1.7260484 -1.9683073 3.2188306
-1.580258 -1.9188654 3.2704604
-1.4306463 -1.8649442 3.3201303
-1.2718704 -1.7971544 3.361846
-1.1027197 -1.7144154 3.3953383
-0.92789108 -1.625983 3.4269199
-0.74765062 -1.5327263 3.4573069
-0.55943835 -1.4307648 3.484271
-0.36078912 -1.3167373 3.5060568
-0.13774204 -1.169486 3.5105152
0.099439621 -1.0070281 3.5091407
0.35375106 -0.82584584 3.500391
0.6493926 -0.59146833 3.4654996
0.88343775 -0.45575583 3.4897442
1.0717989 -0.39016628 3.5546699
-2.8557096 -1.7050389 1.8998368
-2.8029122 -1.9001758 2.1458726
-2.7313681 -2.0321286 2.3375878
-2.6461368 -2.1203971 2.49226
-2.5562222 -2.1912115 2.631577
-2.4561639 -2.2336826 2.7477527
-2.3542681 -2.2692406 2.8578334
-2.2448051 -2.2860966 2.9532635
-2.1251497 -2.2804518 3.0318353
-1.9951744 -2.2540636 3.0955191
-1.8569362 -2.2128184 3.1491559
-1.7166622 -2.1699772 3.2025249
-1.5681837 -2.1141052 3.2477591
-1.4109607 -2.0452628 3.2853043
-1.2491555 -1.9718574 3.3212094
-1.0824838 -1.8937454 3.3555219
-0.91126102 -1.8118081 3.3889608
-0.733114 -1.7224087 3.4193153
-0.53586847 -1.6064794 3.4348006
-0.32761878 -1.4785823 3.4452672
-0.10802722 -1.3390038 3.4512599
0.12536025 -1.1848266 3.4513943
0.39624071 -0.98213518 3.4261532
0.70550621 -0.73270988 3.3780718
0.98319685 -0.53811216 3.3663025
1.1855124 -0.45553744 3.4210463
-2.8383615 -1.5881157 1.5310962
-2.8267231 -1.904972 1.8875414
-2.7651241 -2.0675242 2.1097386
-2.6889095 -2.181427 2.2888062
-2.6075878 -2.2748513 2.4489799
-2.5146179 -2.3346777 2.5804667
-2.4195242 -2.3857262 2.703809
-2.3178627 -2.4191592 2.8124361
-2.2078364 -2.4328363 2.9052675
-2.0935142 -2.436888 2.9905581
-1.9742999 -2.4309809 3.0683637
-1.8408613 -2.3979537 3.1264234
-1.692615 -2.3389764 3.1664348
-1.5409273 -2.2769072 3.205482
-1.3856384 -2.2117081 3.2436361
-1.2258954 -2.1421418 3.2801399
-1.0623018 -2.0695558 3.3160481
-0.8848241 -1.9776417 3.340533
-0.6960811 -1.8719922 3.3578892
-0.49976397 -1.7593648 3.372932
-0.29300129 -1.63583 3.3833742
-0.075769901 -1.5020795 3.3899922
0.18003893 -1.3175111 3.368041
0.45770645 -1.109395 3.3356686
0.78818882 -0.83565152 3.2685189
1.107911 -0.58792353 3.2223508
1.3160526 -0.50081587 3.2738004
-2.81775 -1.8189799 1.5437471
-2.7921851 -2.0844941 1.8616395
-2.7260461 -2.227772 2.0701945
-2.6446657 -2.3236341 2.2359853
-2.5587835 -2.4022183 2.3854494
-2.4681506 -2.4647229 2.5201161
-2.3746252 -2.5167968 2.6450496
-2.2725656 -2.5474873 2.7518718
-2.1670375 -2.5691676 2.8509727
-2.0577698 -2.5821061 2.9428468
-1.9368206 -2.5717115 3.0166333
-1.8077645 -2.5466738 3.079617
-1.663335 -2.4949207 3.1233053
-1.5136905 -2.4366581 3.1633308
-1.3597304 -2.3739507 3.2013886
-1.1990652 -2.3031039 3.234997
-1.0244902 -2.2128582 3.2565358
-0.84428251 -2.1179166 3.2767549
-0.65737188 -2.0169332 3.2948914
-0.4618203 -1.9073528 3.3094306
-0.24992496 -1.7782164 3.3134439
-0.012148738 -1.6168392 3.2993519
0.24259937 -1.4380771 3.2776303
0.53624141 -1.21226 3.2302768
0.91001475 -0.88562083 3.1257377
1.2701069 -0.59061587 3.0472455
-2.7931786 -2.0315897 1.5454195
-2.7524898 -2.2463405 1.8233445
-2.682056 -2.3726046 2.0196404
-2.6008348 -2.4644668 2.183651
-2.5097134 -2.5275018 2.3212168
-2.4190168 -2.5872617 2.4546824
-2.3217487 -2.6292033 2.5721221
-2.2239079 -2.6673405 2.6855526
-2.1219456 -2.6949415 2.7896733
-2.0093122 -2.7002554 2.8754828
-1.8913124 -2.695173 2.9530246
-1.7671514 -2.6791081 3.0221815
-1.6343898 -2.6486127 3.080677
-1.4849286 -2.5908005 3.1192882
-1.322807 -2.5145912 3.1455073
-1.1551635 -2.4331112 3.1695161
-0.98229134 -2.347218 3.192102
-0.80379725 -2.2566106 3.2131934
-0.61744249 -2.1581926 3.2307818
-0.40881979 -2.0309498 3.2306733
-0.18579602 -1.8883089 3.2228825
0.051441073 -1.7315438 3.2087555
0.32082832 -1.5364461 3.1728888
0.65297151 -1.2634578 3.0910285
1.2308847 -0.67159534 2.8129957
1.494877 -0.51653492 2.8197653
-2.7752066 -2.2543387 1.5610449
-2.7259436 -2.4369128 1.8135151
-2.6417806 -2.5237155 1.9764998
-2.5518382 -2.591239 2.1205893
-2.4609396 -2.6520705 2.2573783
-2.3645127 -2.6971304 2.3792758
-2.2676501 -2.7384267 2.4969945
-2.1701398 -2.7758818 2.6105928
-2.0663023 -2.7988288 2.7113709
-1.9574142 -2.8109341 2.8027964
-1.843322 -2.8128338 2.8857365
-1.7234766 -2.8043914 2.9604158
-1.5905889 -2.7738099 3.0179276
-1.4398578 -2.7147164 3.0540686
-1.2783594 -2.6409156 3.0802917
-1.1115668 -2.562274 3.1044877
-0.94040358 -2.480587 3.1281438
-0.75694716 -2.3839641 3.1426885
-0.55539197 -2.2647691 3.1431241
-0.34417713 -2.1368415 3.1399808
-0.12167645 -1.9984363 3.1323276
0.13360584 -1.8202116 3.1003881
0.43342984 -1.5886096 3.0363164
0.83888781 -1.2251439 2.8897524
1.6129092 -0.39292002 2.4450221
-2.8529141 -2.4021373 1.424682
-2.8235023 -2.6331356 1.7283932
-2.7197704 -2.6705008 1.8475056
-2.615248 -2.703383 1.9616865
-2.5099356 -2.7322469 2.0715044
-2.4079604 -2.7663143 2.1853354
-2.3101311 -2.8067522 2.3040376
-2.2113478 -2.8427491 2.4179749
-2.1093884 -2.8703926 2.5239272
-2.0078554 -2.8972101 2.6285665
-1.9030001 -2.9164102 2.7262256
-1.7897675 -2.9196286 2.8102348
-1.666826 -2.9058557 2.8802993
-1.53598 -2.8794792 2.9405169
-1.3950431 -2.8378768 2.989222
-1.2335933 -2.7654951 3.0147352
-1.068247 -2.6905584 3.0398746
-0.88475025 -2.5915051 3.0483112
-0.6918264 -2.4830158 3.0518572
-0.49039757 -2.367079 3.0522959
-0.27931726 -2.2425592 3.0490472
-0.033552647 -2.0751505 3.017796
0.24313414 -1.8727219 2.9655197
0.58799136 -1.5877483 2.8603506
-3.9909301 -3.2863827 1.4680045
-3.0536852 -2.8682418 1.6045711
-2.9505963 -2.9036963 1.72208
-2.840662 -2.9201307 1.8204954
-2.7181654 -2.9064751 1.8899302
-2.5957036 -2.8938577 1.9606466
-2.4735632 -2.8827863 2.0330811
-2.3595686 -2.8893297 2.1219215
-2.2530231 -2.9104118 2.223789
-2.1503553 -2.9377375 2.3307712
-2.0485449 -2.9650486 2.437129
-1.946241 -2.9898701 2.5407026
-1.8394988 -3.0053864 2.6357055
-1.7267473 -3.0096431 2.7207894
-1.6070471 -3.0019584 2.7957602
-1.4795569 -2.9818823 2.8606467
-1.3433597 -2.948889 2.9154358
-1.1827669 -2.8794527 2.9416173
-1.0051343 -2.7874117 2.9514029
-0.81944811 -2.6877306 2.9572697
-0.62658513 -2.5822093 2.9608624
-0.42532575 -2.4695101 2.9613595
-0.18507922 -2.3076138 2.9275184
0.0733881 -2.127924 2.8841705
0.38443673 -1.8858465 2.7994981
-4.0052075 -3.2313137 1.1452222
-3.9370389 -3.3874645 1.3953087
-3.8819346 -3.5700617 1.6703496
-3.7970357 -3.6413612 1.8225639
-3.6364937 -3.48103 1.7287951
-3.4630756 -3.2987821 1.6157956
-3.3234816 -3.2241845 1.618058
-3.1960387 -3.1874089 1.6606271
-3.0753393 -3.1704106 1.7239978
-2.9503455 -3.1444173 1.7787755
-2.8292079 -3.1292634 1.8448405
-2.7034271 -3.1048491 1.9022161
-2.5730348 -3.0722027 1.9522097
-2.4421034 -3.040616 2.0039544
-2.3134103 -3.015573 2.0625765
-2.1952724 -3.0126691 2.1423581
-2.0892682 -3.0328717 2.2434337
-1.9829119 -3.0512373 2.3423836
-1.8770626 -3.0694551 2.440784
-1.7715437 -3.0872324 2.5383809
-1.6619754 -3.097224 2.6287751
-1.5455565 -3.0954475 2.7087994
-1.4174609 -3.0750961 2.7730641
-1.277009 -3.0365036 2.8224835
-1.1183772 -2.9721532 2.8514557
-0.93971229 -2.8811345 2.8601146
-0.75399727 -2.7841339 2.8660247
-0.5521549 -2.6686981 2.8595042
-0.32456613 -2.5227337 2.8317189
-0.080746531 -2.3611259 2.7951863
0.21192861 -2.1416092 2.7183304
0.64747393 -1.745719 2.5144684
-3.8800364 -3.0880251 0.79313159
-3.7170534 -2.9353743 0.70559812
-3.5929761 -2.9212358 0.77455294
-3.7462406 -3.7411947 1.7554029
-3.6651802 -3.8139458 1.9093629
-3.5263848 -3.7223086 1.8857766
-3.356606 -3.5573635 1.7867167
-3.2101283 -3.464426 1.7668349
-3.0739541 -3.4036481 1.782388
-2.9393668 -3.3511512 1.8078194
-2.807126 -3.3077269 1.8436434
-2.6782241 -3.2745619 1.8907344
-2.5444684 -3.2335291 1.930807
-2.4063909 -3.1864777 1.9659393
-2.2691808 -3.1441104 2.0066814
-2.1389263 -3.117516 2.0634577
-2.0205228 -3.1142657 2.142864
-1.9134448 -3.1313896 2.2413268
-1.8074901 -3.1494932 2.3402965
-1.7006005 -3.165029 2.4365165
-1.5900351 -3.173708 2.526227
-1.4713567 -3.1689799 2.6038647
-1.343395 -3.1500425 2.6691911
-1.2050128 -3.1162238 2.7221174
-1.0538318 -3.0650773 2.761076
-0.87414348 -2.9751072 2.7686195
-0.67035121 -2.8552146 2.7534587
-0.45311338 -2.7221441 2.7302997
-0.22221321 -2.5764723 2.7000618
0.060905218 -2.3680456 2.623385
0.42268157 -2.0666192 2.4787877
-3.7449541 -2.9313736 0.41218257
-3.6233311 -2.9305849 0.49710679
-3.4964976 -2.9140668 0.56424522
-3.363256 -2.8806057 0.61279058
-3.222487 -2.8294368 0.64248765
-3.5262575 -3.9552808 1.9643699
-3.3772373 -3.8426588 1.9160236
-3.2121425 -3.7000611 1.83813
-3.0628672 -3.6053586 1.8144228
-2.9215741 -3.5356135 1.8191357
-2.7823529 -3.4753466 1.8353209
-2.6443119 -3.4217091 1.8597202
-2.5081615 -3.3754773 1.8928901
-2.3674111 -3.3232336 1.9211076
-2.220449 -3.2624912 1.9421178
-2.0805206 -3.2183595 1.9808255
-1.9528303 -3.1986473 2.0442111
-1.8385727 -3.2033303 2.1313953
-1.7291005 -3.2158105 2.2258382
-1.6200249 -3.2282646 2.3199649
-1.5106189 -3.239536 2.4127114
-1.3938444 -3.238776 2.494246
-1.2680929 -3.2244513 2.5636139
-1.1316378 -3.1950035 2.6199086
-0.97598469 -3.1392565 2.6538818
-0.78183264 -3.0318439 2.6445589
-0.57289529 -2.9089544 2.6245663
-0.35270929 -2.7763829 2.5993125
-0.072935939 -2.5710809 2.516923
0.2679739 -2.295697 2.382107
-3.6953845 -3.0724456 0.36892474
-3.5359817 -2.9539399 0.31543517
-3.4090466 -2.9417572 0.38810563
-3.2765799 -2.9153214 0.44469762
-3.1380076 -2.8750148 0.48615289
-3.4775844 -4.054801 1.9006855
-3.3828859 -4.0782585 2.0005469
-3.217207 -3.9334548 1.9146122
-3.0513878 -3.7992845 1.8436899
-2.898366 -3.7027068 1.816443
-2.751749 -3.6263523 1.8130293
-2.6088028 -3.5626192 1.8247224
-2.4641166 -3.4996634 1.8387355
-2.3195882 -3.441011 1.8586719
-2.1700344 -3.3767314 1.8742707
-2.0156245 -3.3076334 1.8865452
-1.8780565 -3.2717183 1.9334493
-1.7579954 -3.2672961 2.0121431
-1.6480933 -3.2797475 2.1073189
-1.5377069 -3.2907622 2.2008219
-1.4268311 -3.3004441 2.2928019
-1.3096874 -3.3001552 2.3752298
-1.1808258 -3.2825947 2.4417202
-1.038903 -3.2470794 2.4922645
-0.88049436 -3.1900649 2.5243134
-0.68580288 -3.0858479 2.5158167
-0.46460623 -2.9507389 2.4827361
-0.19384128 -2.7564993 2.4017749
0.15041137 -2.476222 2.2521093
-3.6165037 -3.1196516 0.21389616
-3.4546189 -3.0013533 0.15787542
-3.3278756 -2.9929833 0.23543382
-3.1960096 -2.971652 0.29793489
-3.0608535 -2.9437501 0.3532927
-2.9199562 -2.9040828 0.39575338
-3.3368154 -4.1821299 1.942901
-3.2212377 -4.1551743 1.9857779
-3.0389981 -3.9847655 1.8690498
-2.8766665 -3.8684344 1.81618
-2.7181358 -3.7678609 1.7833319
-2.5651813 -3.6849501 1.7719972
-2.4172497 -3.6169422 1.7785876
-2.2640414 -3.5434783 1.7810467
-2.1080317 -3.4694746 1.784709
-1.9451376 -3.3879061 1.7823367
-1.7941847 -3.3310959 1.8072021
-1.6661694 -3.3149657 1.874476
-1.5536776 -3.3244126 1.9676346
-1.4419001 -3.3344696 2.0611668
-1.3304337 -3.3444781 2.1544099
-1.2133054 -3.3456526 2.238925
-1.0845673 -3.3300986 2.3075399
-0.94236732 -3.2964153 2.3595469
-0.78330135 -3.2412095 2.3924611
-0.56326044 -3.1069343 2.3545372
-0.30506122 -2.9287143 2.2802622
0.05319345 -2.630208 2.1033819
-3.5367846 -3.1689575 0.057996988
-3.3767781 -3.0633173 0.014681101
-3.2525229 -3.0640914 0.10368967
-3.1234169 -3.0522766 0.17748344
-2.9892039 -3.0288529 0.23769462
-2.8521147 -3.0005302 0.29268456
-2.7112284 -2.9657886 0.34085214
-3.1874509 -4.285408 1.9585227
-3.0335712 -4.1789675 1.9096889
-2.8483076 -4.0160961 1.7994711
-2.6817024 -3.9009929 1.7468063
-2.5195155 -3.8018556 1.7146631
-2.3585863 -3.7113404 1.6944003
-2.202239 -3.6345842 1.6912756
-2.0339344 -3.5417066 1.6727293
-1.8610483 -3.4465158 1.6539969
-1.6950684 -3.3679824 1.6550512
-1.562125 -3.3462696 1.7168988
-1.4494718 -3.3571067 1.8126066
-1.337787 -3.3688385 1.9089551
-1.2264676 -3.3805127 2.0049601
-1.1088957 -3.3826537 2.0912669
-0.97665632 -3.3641908 2.1574295
-0.8260181 -3.3214855 2.2006986
-0.64947897 -3.2462091 2.2140434
-0.40858936 -3.0904441 2.1536837
-0.027099252 -2.7623024 1.9374466
-3.300899 -3.1341021 -0.12018704
-3.1778803 -3.1397514 -0.024601221
-3.0530581 -3.1404223 0.064682961
-2.9238977 -3.1307003 0.1412158
-2.7901545 -3.1112752 0.2062192
-2.6535256 -3.0870006 0.2658819
-3.1290941 -4.3609524 1.8686854
-3.0192156 -4.3483248 1.9271618
-2.8255463 -4.1713886 1.7947918
-2.6414185 -4.0244493 1.7013334
-2.4665651 -3.9041066 1.6417999
-2.2936683 -3.7947919 1.5976685
-2.1226723 -3.695405 1.5673044
-1.9413316 -3.5844831 1.5266972
-1.7428613 -3.4519362 1.4652876
-1.563399 -3.3569398 1.4475921
-1.4365915 -3.3484123 1.5242789
-1.3284502 -3.3684058 1.6311784
-1.2192743 -3.3858569 1.7349398
-1.1065438 -3.3973565 1.8321555
-0.98579419 -3.3971179 1.9171754
-0.84873825 -3.374707 1.9799771
-0.6919111 -3.3270674 2.0183585
-0.48839277 -3.2209651 2.0007696
-3.2692094 -3.323503 -0.10387397
-3.1087427 -3.2315822 -0.13421011
-2.9861407 -3.2382545 -0.037078619
-2.8595164 -3.2351346 0.047577143
-2.7327709 -3.2319918 0.13228321
-2.6020164 -3.2205696 0.20687127
-2.4687731 -3.2048821 0.2765466
-2.9728217 -4.4493113 1.8669442
-2.8064909 -4.3298202 1.7976233
-2.5982294 -4.1407814 1.6491497
-2.4049385 -3.9905169 1.5507501
-2.2181773 -3.8608246 1.4799161
-2.0201705 -3.7199905 1.3996038
-1.7936424 -3.5407999 1.2794534
-1.4136105 -3.1283424 0.90291882
-1.3638158 -3.2477345 1.1249089
-1.2712736 -3.2965956 1.266785
-1.1760609 -3.3390105 1.4004657
-1.0706636 -3.3647659 1.5152851
-0.95973986 -3.3815684 1.6200064
-0.83322561 -3.3764205 1.7014116
-0.68246329 -3.3394089 1.7501147
-0.49186587 -3.2525718 1.749038
-3.0385823 -3.3221636 -0.24654603
-2.9212213 -3.3414569 -0.13253379
-2.8010671 -3.3530092 -0.02899456
-2.6770985 -3.3555367 0.062728643
-2.5540216 -3.3597081 0.15646458
-2.4289117 -3.3595548 0.2446841
-2.9081454 -4.5146375 1.7632705
-2.7864032 -4.4821558 1.7971222
-2.5535407 -4.253089 1.5934255
-2.3361428 -4.0651474 1.4449248
-2.1059506 -3.8671243 1.2892601
-0.97003001 -3.0554802 0.78729582
-0.94786245 -3.209439 1.0505474
-0.87186134 -3.2811196 1.2195556
-0.7545386 -3.2934582 1.3223567
-0.60295546 -3.2600129 1.3757596
-3.0182042 -3.5297046 -0.20235777
-2.8582511 -3.4493811 -0.22203732
-2.7410345 -3.4668417 -0.11028862
-2.6264515 -3.4884055 0.0063815117
-2.508399 -3.5015135 0.11152625
-2.3931165 -3.5190053 0.22195828
-2.2779994 -3.5356135 0.33081412
-2.7342789 -4.5733209 1.7236177
-2.4991043 -4.347404 1.5164466
-2.2305923 -4.0794487 1.2633545
-2.8419323 -3.6575837 -0.17415452
-2.6861577 -3.5909452 -0.17726421
-2.5752108 -3.6184196 -0.052117586
-2.4664865 -3.64819 0.075359821
-2.3586516 -3.6775517 0.20151317
-2.258719 -3.7190967 0.34278631
-2.6649046 -4.6345787 1.6115228
-2.4506273 -4.4517183 1.4522491
-2.6740108 -3.7991521 -0.12595654
-2.5257401 -3.7503304 -0.10643506
-2.4248796 -3.792829 0.039155483
-2.3284209 -3.8403246 0.19036603
-2.2378564 -3.8949096 0.34979844
-2.5832171 -4.6770611 1.4724928
-2.3550811 -4.4789019 1.2875035
-2.6241555 -3.9278331 -0.18097186
-2.5275207 -3.975708 -0.026597738
-2.381691 -3.932126 -0.0018079281
-2.2965834 -3.996628 0.17429733
-2.2235024 -4.0771189 0.37063503
-2.4876504 -4.7001076 1.3035132
-2.4800649 -4.1047797 -0.077845097
-2.408998 -4.1913352 0.13240862
-2.2612443 -4.1437426 0.14890945
-2.20084 -4.2408495 0.3711288
-2.3814945 -4.7108984 1.1122923
-2.3190694 -4.4390211 0.34387922
-2.3012724 -4.593873 0.65093315
-2.2285891 -4.6557999 0.82008934
0 0 0 1 0 0 0 1 0 0 0 1 0 0 0 0 0 582 1 0 0
